  -8.1929401e+01  -7.7342300e+01  -1.1523102e+00
  -6.2401861e+01  -7.7475460e+01  -6.5616025e-01
  -4.2847151e+01  -7.8114890e+01   4.5949753e-02
  -2.3270801e+01  -7.9686140e+01   3.1121975e-01
  -3.7288706e+00  -7.9713590e+01   6.4230975e-01
   1.7186699e+01  -8.0589580e+01   4.6943975e-01
   3.7425029e+01  -8.1120490e+01   2.5879753e-02
   5.7805709e+01  -8.1452180e+01  -2.9900025e-01
   7.7686629e+01  -8.3753750e+01  -7.8569025e-01
  -8.1135791e+01  -5.7355500e+01  -9.4254025e-01
  -6.0798371e+01  -5.8190440e+01  -4.3009025e-01
  -4.1720641e+01  -5.9114090e+01   2.4193975e-01
  -2.1266861e+01  -5.9676410e+01   4.7546975e-01
  -2.3428506e+00  -5.9673600e+01   7.2300975e-01
   1.8997919e+01  -6.1585080e+01   5.5166975e-01
   3.8583649e+01  -6.0702600e+01   2.1020975e-01
   5.9185379e+01  -6.2096880e+01   1.2713975e-01
   7.7828839e+01  -6.2723530e+01  -3.9068025e-01
  -8.0558991e+01  -3.7428390e+01  -8.2319025e-01
  -6.1717871e+01  -3.7637130e+01  -3.1730025e-01
  -4.1356321e+01  -3.7858330e+01   1.9266975e-01
  -2.2226591e+01  -3.9457710e+01   4.1930975e-01
  -1.8468906e+00  -4.0144450e+01   6.6512975e-01
   1.9384859e+01  -4.0363760e+01   6.9194975e-01
   3.8502809e+01  -4.1150360e+01   2.5283975e-01
   5.8042769e+01  -4.1986360e+01   2.5599753e-02
   7.9092209e+01  -4.2589340e+01  -2.8211025e-01
  -8.0350401e+01  -1.6859840e+01  -9.4636025e-01
  -6.0158421e+01  -1.7352220e+01  -1.2333025e-01
  -4.0602271e+01  -1.8372880e+01   3.1247975e-01
  -2.0781541e+01  -1.8792130e+01   4.6997975e-01
  -1.0342406e+00  -1.9964710e+01   7.0568975e-01
   1.8724009e+01  -2.0412370e+01   5.8584975e-01
   3.9267619e+01  -2.2012180e+01   5.4375975e-01
   5.9211009e+01  -2.1867280e+01   3.4859975e-01
   7.9019239e+01  -2.3025490e+01  -2.9316025e-01
  -7.9409841e+01   2.8799502e+00  -8.1955025e-01
  -5.9457081e+01   1.5821902e+00  -2.5620025e-01
  -4.0398901e+01   1.5879302e+00   2.0658975e-01
  -2.0117811e+01   1.0506202e+00   6.3619975e-01
  -9.0428062e-01   4.7506025e-01   6.4116975e-01
   2.0059839e+01  -6.1589975e-01   5.7799975e-01
   3.9637299e+01  -1.5152598e+00   4.7845975e-01
   5.9997629e+01  -2.4161698e+00   2.6640975e-01
   8.0511949e+01  -3.1900698e+00  -1.4060025e-01
  -7.8577991e+01   2.1849540e+01  -1.0817602e+00
  -5.8935331e+01   2.1903180e+01  -3.1908025e-01
  -3.8703041e+01   2.1158780e+01   2.2851975e-01
  -2.0387761e+01   2.0844600e+01   3.6092975e-01
  -3.0214062e-01   1.9528900e+01   6.8074975e-01
   2.0663499e+01   1.8974160e+01   2.8193975e-01
   4.0713799e+01   1.8545120e+01   3.7666975e-01
   6.0012649e+01   1.8063430e+01   1.9545975e-01
   8.1063919e+01   1.7622570e+01  -3.6275025e-01
  -7.8104311e+01   4.2512260e+01  -9.5478025e-01
  -5.9177061e+01   4.1766600e+01  -4.7415025e-01
  -3.7816681e+01   4.1845350e+01   1.7830975e-01
  -1.8738021e+01   4.0168330e+01   3.6289975e-01
   1.0930794e+00   3.9254630e+01   4.0994975e-01
   2.0893739e+01   3.8674740e+01   5.4669975e-01
   4.0580349e+01   3.8821310e+01   3.7205975e-01
   6.0984329e+01   3.8269150e+01   2.3710975e-01
   8.1723279e+01   3.6850000e+01  -3.4941025e-01
  -7.8190751e+01   6.2977870e+01  -8.8051025e-01
  -5.8069171e+01   6.2000320e+01  -5.0524025e-01
  -3.8204091e+01   6.0877820e+01   8.9799753e-02
  -1.7779511e+01   6.0591410e+01   2.0557975e-01
   2.2233594e+00   6.0326820e+01   3.8005975e-01
   2.1416399e+01   5.9847380e+01   2.2722975e-01
   4.0964479e+01   5.9389740e+01   1.1635975e-01
   6.1193829e+01   5.8438560e+01  -1.4111025e-01
   8.2144819e+01   5.7438490e+01  -4.1574025e-01
  -7.8091431e+01   8.1755090e+01  -1.2016602e+00
  -5.6985841e+01   8.2576930e+01  -6.5571025e-01
  -3.7339201e+01   8.1387720e+01  -1.2926025e-01
  -1.7202711e+01   8.0432480e+01   1.8108975e-01
   2.8756494e+00   8.0138180e+01   1.7207975e-01
   2.1990809e+01   7.9599860e+01  -1.4931025e-01
   4.2680389e+01   7.8638190e+01  -7.8780247e-02
   6.2647199e+01   7.7756470e+01  -5.2191025e-01
   8.2952409e+01   7.6977090e+01  -5.6898025e-01
