  -8.1627891e+01  -7.0588377e+01   1.9022401e+01
  -6.2113537e+01  -6.9861153e+01   1.9522235e+01
  -4.2545313e+01  -6.9654019e+01   2.0096876e+01
  -2.2964878e+01  -7.0195667e+01   1.8652627e+01
  -3.4219416e+00  -6.9947256e+01   1.8749346e+01
   1.7488866e+01  -7.0081330e+01   1.7760172e+01
   3.7719129e+01  -6.9387481e+01   1.7191303e+01
   5.8019991e+01  -6.7688740e+01   1.7950889e+01
   7.8014157e+01  -6.8641129e+01   1.7617150e+01
  -8.1793059e+01  -5.0940738e+01   2.2775924e+01
  -6.1432621e+01  -5.0808709e+01   2.2850150e+01
  -4.2341705e+01  -5.1146222e+01   2.3679338e+01
  -2.1895183e+01  -5.1215014e+01   2.2865167e+01
  -2.9768186e+00  -5.0707201e+01   2.2734573e+01
   1.8418428e+01  -5.1792438e+01   2.3155597e+01
   3.7935983e+01  -5.0101355e+01   2.3993127e+01
   5.8416131e+01  -5.0327251e+01   2.6618905e+01
   7.7041392e+01  -4.9740456e+01   2.5799383e+01
  -8.1686349e+01  -3.1201607e+01   1.9984514e+01
  -6.2924117e+01  -3.0328824e+01   2.1566985e+01
  -4.2561298e+01  -2.9961602e+01   2.1916909e+01
  -2.3403472e+01  -3.1083533e+01   2.1392559e+01
  -3.0154503e+00  -3.1250094e+01   2.0986284e+01
   1.8184483e+01  -3.0601268e+01   2.1975164e+01
   3.7220286e+01  -3.0562031e+01   2.3961169e+01
   5.6585956e+01  -3.0267482e+01   2.6689659e+01
   7.7530213e+01  -2.9804121e+01   2.8848500e+01
  -8.1655255e+01  -1.2996367e+01   1.0435577e+01
  -6.1753065e+01  -1.1605563e+01   1.3692011e+01
  -4.2242668e+01  -1.1574787e+01   1.5429289e+01
  -2.2440590e+01  -1.1041820e+01   1.6238964e+01
  -2.6745580e+00  -1.1463319e+01   1.6954993e+01
   1.7028587e+01  -1.0990608e+01   1.8426664e+01
   3.7475289e+01  -1.1655097e+01   2.0894845e+01
   5.7191093e+01  -1.0356995e+01   2.3615120e+01
   7.6803875e+01  -1.0373089e+01   2.6690472e+01
  -8.0223682e+01   2.6522604e+00  -1.5490419e+00
  -6.0611029e+01   3.4868304e+00   2.2930273e+00
  -4.1773115e+01   5.2203698e+00   4.6502003e+00
  -2.1674345e+01   6.5692243e+00   7.1029419e+00
  -2.5750694e+00   7.4087718e+00   9.1039074e+00
   1.8230149e+01   7.7035400e+00   1.1886800e+01
   3.7617322e+01   7.9019149e+00   1.4749296e+01
   5.7770980e+01   8.2036260e+00   1.7772321e+01
   7.8117279e+01   8.4919387e+00   2.0519486e+01
  -7.8105246e+01   1.4754524e+01  -1.6028459e+01
  -5.8879265e+01   1.7120872e+01  -1.2684713e+01
  -3.8963683e+01   1.8702668e+01  -9.3579874e+00
  -2.0934572e+01   2.0666708e+01  -6.7774025e+00
  -1.1454723e+00   2.1837833e+01  -3.2723361e+00
   1.9532476e+01   2.3216223e+01  -2.4669712e-02
   3.9283032e+01   2.4310791e+01   3.2806362e+00
   5.8277642e+01   2.5343341e+01   6.5744319e+00
   7.9112998e+01   2.6163505e+01   9.5538909e+00
  -7.5540963e+01   2.7549360e+01  -3.2056719e+01
  -5.7368973e+01   2.7926907e+01  -2.9285513e+01
  -3.6327594e+01   3.0237586e+01  -2.6349721e+01
  -1.7699092e+01   3.1928764e+01  -2.2231397e+01
   1.7867197e+00   3.3660381e+01  -1.8852901e+01
   2.1066514e+01   3.5938556e+01  -1.4913287e+01
   4.0415637e+01   3.7737235e+01  -1.1752467e+01
   6.0273362e+01   3.9754554e+01  -7.4808540e+00
   8.0551136e+01   4.0699789e+01  -2.9663818e+00
  -7.4030077e+01   3.9001391e+01  -4.8951167e+01
  -5.4399237e+01   3.9193862e+01  -4.5864662e+01
  -3.4979359e+01   4.0042850e+01  -4.2611083e+01
  -1.4818685e+01   4.1858573e+01  -3.9870780e+01
   4.7284920e+00   4.4629472e+01  -3.6638868e+01
   2.3395968e+01   4.6760311e+01  -3.2687809e+01
   4.2178941e+01   4.9585510e+01  -2.8043747e+01
   6.1564650e+01   5.2239051e+01  -2.2813961e+01
   8.1987858e+01   5.4202103e+01  -1.8448350e+01
  -7.1695162e+01   4.8594406e+01  -6.4926749e+01
  -5.0750710e+01   4.9312272e+01  -6.3440189e+01
  -3.1738850e+01   5.1925388e+01  -5.9035346e+01
  -1.2232229e+01   5.2987810e+01  -5.6101973e+01
   7.6523840e+00   5.4357170e+01  -5.3661837e+01
   2.6030530e+01   5.7043306e+01  -4.9307089e+01
   4.5944160e+01   5.9442735e+01  -4.4141962e+01
   6.4212402e+01   6.3224972e+01  -3.8338292e+01
   8.3658509e+01   6.5222390e+01  -3.2791180e+01
