  -8.1258483e+01  -7.6451023e+01   1.1311053e+01
  -6.1845270e+01  -7.6332629e+01   9.5710773e+00
  -4.2311015e+01  -7.6945331e+01   1.0209655e+01
  -2.2795874e+01  -7.8376322e+01   8.5113633e+00
  -3.2541504e+00  -7.8484105e+01   8.1844927e+00
   1.7665493e+01  -7.9112219e+01   7.7025237e+00
   3.7912787e+01  -7.9413589e+01   7.8602037e+00
   5.8294464e+01  -7.9131969e+01   7.5509523e+00
   7.8155650e+01  -8.0873203e+01   5.7380919e+00
  -8.0680198e+01  -5.6474050e+01   1.2166695e+01
  -6.0344064e+01  -5.7124892e+01   1.1399602e+01
  -4.1295244e+01  -5.7999814e+01   1.0997691e+01
  -2.0911151e+01  -5.8615031e+01   9.3130192e+00
  -2.0070598e+00  -5.8436309e+01   8.4282378e+00
   1.9348013e+01  -6.0167178e+01   8.7048383e+00
   3.8911258e+01  -5.9046489e+01   9.4257456e+00
   5.9475962e+01  -6.0065928e+01   1.0986477e+01
   7.8132121e+01  -6.0497800e+01   1.0961896e+01
  -8.0222630e+01  -3.6599417e+01   1.0674624e+01
  -6.1379839e+01  -3.6612528e+01   1.0188468e+01
  -4.1057288e+01  -3.6852734e+01   8.8327653e+00
  -2.1974360e+01  -3.8484530e+01   7.5155434e+00
  -1.5997603e+00  -3.8972418e+01   6.8071116e+00
   1.9628401e+01  -3.8993288e+01   7.2551555e+00
   3.8731457e+01  -3.9527186e+01   8.3019494e+00
   5.8206939e+01  -3.9984539e+01   1.0050382e+01
   7.9252124e+01  -4.0355874e+01   1.0757114e+01
  -8.0220999e+01  -1.6403653e+01   6.7688555e+00
  -6.0008332e+01  -1.6563395e+01   7.0106825e+00
  -4.0468803e+01  -1.7558492e+01   6.0666141e+00
  -2.0684136e+01  -1.7979651e+01   4.8618314e+00
  -9.2667605e-01  -1.8921518e+01   4.4849677e+00
   1.8831057e+01  -1.9187245e+01   4.8906535e+00
   3.9354601e+01  -2.0499590e+01   6.1802067e+00
   5.9220447e+01  -1.9972499e+01   7.8737890e+00
   7.9040518e+01  -2.0925138e+01   8.4874476e+00
  -7.9428637e+01   2.8071279e+00   2.1995987e+00
  -5.9466531e+01   1.9842573e+00   3.1749999e+00
  -4.0418016e+01   2.0669762e+00   2.4162783e+00
  -2.0136478e+01   1.6437285e+00   1.8909793e+00
  -9.1770643e-01   1.3300154e+00   1.7135841e+00
   2.0050650e+01   4.2817622e-01   2.1643794e+00
   3.9605633e+01  -2.0351915e-01   3.3042435e+00
   5.9929834e+01  -7.7590074e-01   4.7180621e+00
   8.0412728e+01  -1.2272547e+00   6.0779281e+00
  -7.8513479e+01   2.0983731e+01  -3.2207014e+00
  -5.9035632e+01   2.1531685e+01  -2.3865841e+00
  -3.8788225e+01   2.1105807e+01  -2.1401765e+00
  -2.0474502e+01   2.0940372e+01  -2.5221337e+00
  -3.6927766e-01   1.9991590e+01  -2.1410001e+00
   2.0599039e+01   1.9646027e+01  -1.6560914e+00
   4.0635256e+01   1.9432732e+01  -8.1225081e-01
   5.9884204e+01   1.9297889e+01   6.6094840e-01
   8.0919622e+01   1.8976634e+01   1.0713396e+00
  -7.7813946e+01   4.0604506e+01  -9.6801404e+00
  -5.9370176e+01   4.0159284e+01  -9.2814046e+00
  -3.8026210e+01   4.0814262e+01  -8.4424349e+00
  -1.8928897e+01   3.9353637e+01  -8.4120371e+00
   9.0952993e-01   3.8820182e+01  -7.9003051e+00
   2.0699690e+01   3.8430989e+01  -7.1134175e+00
   4.0349807e+01   3.8866198e+01  -5.9740866e+00
   6.0748664e+01   3.8520552e+01  -5.3316898e+00
   8.1484977e+01   3.7484326e+01  -4.1511803e+00
  -7.8456269e+01   5.9149811e+01  -1.8312246e+01
  -5.8323314e+01   5.8481008e+01  -1.7875027e+01
  -3.8621457e+01   5.8043241e+01  -1.6517136e+01
  -1.8208000e+01   5.8382219e+01  -1.5857777e+01
   1.7945664e+00   5.8080766e+01  -1.5710278e+01
   2.0947535e+01   5.7897230e+01  -1.4385105e+01
   4.0437578e+01   5.7973722e+01  -1.2809805e+01
   6.0635795e+01   5.7494234e+01  -1.1395685e+01
   8.1595017e+01   5.6671676e+01  -1.1627910e+01
  -7.7718355e+01   7.6301225e+01  -2.5926801e+01
  -5.6648713e+01   7.6640556e+01  -2.7467714e+01
  -3.7613257e+01   7.6517917e+01  -2.5412181e+01
  -1.7464665e+01   7.5864109e+01  -2.5105891e+01
   2.5517974e+00   7.6157583e+01  -2.3530340e+01
   2.1648583e+01   7.5897780e+01  -2.2516580e+01
   4.2253080e+01   7.5643226e+01  -2.0424122e+01
   6.2174885e+01   7.5338575e+01  -1.8788222e+01
   8.2478453e+01   7.4716538e+01  -1.8250270e+01
