  -7.9437337e+01  -7.4246498e+01   1.3809657e+01
  -5.9928314e+01  -7.3258712e+01   1.3914691e+01
  -4.0459921e+01  -7.2742616e+01   1.5915649e+01
  -2.0864822e+01  -7.3169806e+01   1.7189333e+01
  -1.3697093e+00  -7.1945813e+01   1.6526133e+01
   1.9561660e+01  -7.1778927e+01   1.6855134e+01
   3.9791515e+01  -7.0906950e+01   1.7102558e+01
   6.0077658e+01  -6.9274087e+01   1.8283173e+01
   8.0093616e+01  -6.9089818e+01   1.8618627e+01
  -8.0010711e+01  -5.4596774e+01   1.5984562e+01
  -5.9811871e+01  -5.4234019e+01   1.7461768e+01
  -4.0757575e+01  -5.4068997e+01   1.8935224e+01
  -2.0317059e+01  -5.3507601e+01   1.9708547e+01
  -1.4188175e+00  -5.2601920e+01   2.0172932e+01
   1.9973629e+01  -5.3309274e+01   2.1160068e+01
   3.9409441e+01  -5.1253509e+01   2.2747277e+01
   5.9921222e+01  -5.1109552e+01   2.5119686e+01
   7.8413450e+01  -5.0044242e+01   2.7387291e+01
  -8.0591435e+01  -3.4695426e+01   1.4966848e+01
  -6.1832887e+01  -3.3778857e+01   1.6568122e+01
  -4.1509423e+01  -3.2866551e+01   1.7581154e+01
  -2.2333838e+01  -3.3554736e+01   1.8197003e+01
  -1.9471016e+00  -3.3147197e+01   1.8478321e+01
   1.9211221e+01  -3.2132857e+01   1.9938628e+01
   3.8216651e+01  -3.1746195e+01   2.2163868e+01
   5.7525947e+01  -3.1109488e+01   2.5214485e+01
   7.8252268e+01  -2.9917224e+01   2.8755010e+01
  -8.1180710e+01  -1.4703462e+01   1.0160802e+01
  -6.1056333e+01  -1.3984246e+01   1.1929431e+01
  -4.1504572e+01  -1.3885667e+01   1.3109946e+01
  -2.1696593e+01  -1.3333166e+01   1.3742907e+01
  -1.9425845e+00  -1.3284896e+01   1.4821416e+01
   1.7755131e+01  -1.2565193e+01   1.6265444e+01
   3.8178999e+01  -1.2856614e+01   1.8982386e+01
   5.7843294e+01  -1.1231962e+01   2.1893382e+01
   7.7447137e+01  -1.0736641e+01   2.4985837e+01
  -8.0416216e+01   2.7338497e+00   8.9172675e-01
  -6.0524710e+01   2.7188054e+00   2.9993214e+00
  -4.1599022e+01   4.2284367e+00   4.7220468e+00
  -2.1391006e+01   5.0949225e+00   6.3594747e+00
  -2.3261473e+00   6.1706279e+00   8.5651619e+00
   1.8520876e+01   6.5505317e+00   1.1003558e+01
   3.7973156e+01   6.8599804e+00   1.3371842e+01
   5.8165607e+01   7.3493783e+00   1.6096734e+01
   7.8467565e+01   8.2192834e+00   1.9042183e+01
  -7.8301673e+01   1.7089076e+01  -1.1358263e+01
  -5.9586803e+01   1.8528021e+01  -9.7446125e+00
  -3.9603401e+01   2.0011896e+01  -6.8016026e+00
  -2.1418390e+01   2.1301906e+01  -5.0108034e+00
  -1.5335469e+00   2.2045172e+01  -1.9602161e+00
   1.9261480e+01   2.3129739e+01   5.7264740e-01
   3.9125888e+01   2.4115828e+01   3.1495640e+00
   5.8284690e+01   2.4824568e+01   5.4185860e+00
   7.8893738e+01   2.6174776e+01   8.5094400e+00
  -7.7732494e+01   3.0956348e+01  -2.6447074e+01
  -5.8923725e+01   3.1946066e+01  -2.4378625e+01
  -3.7788721e+01   3.3520479e+01  -2.2388375e+01
  -1.9026810e+01   3.4115344e+01  -1.9371317e+01
   5.2141771e-01   3.5577924e+01  -1.6234884e+01
   2.0113917e+01   3.6697827e+01  -1.3532868e+01
   3.9523981e+01   3.8647641e+01  -1.0875385e+01
   5.9570273e+01   4.0384702e+01  -7.4440151e+00
   8.0107825e+01   4.0581355e+01  -4.1832928e+00
  -7.6613250e+01   4.3531407e+01  -4.2555127e+01
  -5.6577135e+01   4.4018868e+01  -4.0483679e+01
  -3.6809110e+01   4.4150008e+01  -3.8150554e+01
  -1.6796676e+01   4.5853929e+01  -3.5962815e+01
   2.8937086e+00   4.7983713e+01  -3.3140039e+01
   2.1868779e+01   4.9253179e+01  -3.0501643e+01
   4.1044735e+01   5.1111015e+01  -2.7157943e+01
   6.0733897e+01   5.3264787e+01  -2.2927601e+01
   8.1321395e+01   5.4665516e+01  -1.9157659e+01
  -7.4616283e+01   5.4438393e+01  -5.7712526e+01
  -5.4358601e+01   5.4462157e+01  -5.5300591e+01
  -3.4853319e+01   5.6874223e+01  -5.4114102e+01
  -1.4821543e+01   5.7497067e+01  -5.1917047e+01
   5.0434347e+00   5.9063998e+01  -4.9436194e+01
   2.3910568e+01   6.0477863e+01  -4.6640718e+01
   4.4124168e+01   6.2387396e+01  -4.2547731e+01
   6.3746835e+01   6.3713625e+01  -3.8964525e+01
   8.2827454e+01   6.7963729e+01  -3.3416757e+01
