  -7.9911429e+01  -6.2139899e+01  -3.6217703e+01
  -6.0423528e+01  -6.2201708e+01  -3.4873615e+01
  -4.0852749e+01  -6.2053171e+01  -3.4372580e+01
  -2.1285872e+01  -6.3248887e+01  -3.3155926e+01
  -1.7667936e+00  -6.3532111e+01  -3.2195305e+01
   1.9144023e+01  -6.4271575e+01  -3.1525052e+01
   3.9361504e+01  -6.4732828e+01  -3.0471799e+01
   5.9356530e+01  -6.4957276e+01  -2.9202810e+01
   7.9193792e+01  -6.7055132e+01  -2.7509551e+01
  -8.0315381e+01  -5.0185867e+01  -2.0183867e+01
  -6.0179445e+01  -5.1019753e+01  -1.9404454e+01
  -4.1122745e+01  -5.1916506e+01  -1.8263175e+01
  -2.0794513e+01  -5.2684958e+01  -1.7049921e+01
  -1.9273561e+00  -5.3184610e+01  -1.5649851e+01
   1.9401941e+01  -5.5186195e+01  -1.5242066e+01
   3.8932806e+01  -5.4591827e+01  -1.3602478e+01
   5.9535735e+01  -5.5255199e+01  -1.2393577e+01
   7.7382131e+01  -5.6290334e+01  -9.5294745e+00
  -8.0690924e+01  -3.5832214e+01  -6.3538899e+00
  -6.2247383e+01  -3.6263067e+01  -5.2178201e+00
  -4.1976047e+01  -3.7052689e+01  -3.3872065e+00
  -2.2827524e+01  -3.8427045e+01  -3.4214071e+00
  -2.5134611e+00  -3.9645791e+01  -2.1107866e+00
   1.8671490e+01  -4.0302018e+01  -8.4459522e-01
   3.7770175e+01  -4.0859726e+01   2.6749418e-01
   5.7236753e+01  -4.1434816e+01   2.0791753e+00
   7.8192144e+01  -4.1510106e+01   4.1775390e+00
  -8.1304342e+01  -1.8049858e+01   3.9677118e+00
  -6.1114228e+01  -1.8593296e+01   4.8042665e+00
  -4.1601996e+01  -1.9911936e+01   5.9036676e+00
  -2.1808115e+01  -2.0596545e+01   6.7955716e+00
  -2.0880354e+00  -2.2041490e+01   7.4413130e+00
   1.7617018e+01  -2.2825360e+01   8.7450051e+00
   3.8050443e+01  -2.4732054e+01   1.0599927e+01
   5.7814025e+01  -2.4689794e+01   1.3282635e+01
   7.7492931e+01  -2.5710790e+01   1.5694586e+01
  -8.0341604e+01   1.0185093e+00   9.0697267e+00
  -6.0397150e+01  -3.2761420e-01   9.7914598e+00
  -4.1335907e+01  -3.9677584e-01   1.0095832e+01
  -2.1072909e+01  -1.2111768e+00   1.0833100e+01
  -1.8703418e+00  -1.9632717e+00   1.1265318e+01
   1.9058774e+01  -3.3319262e+00   1.2152662e+01
   3.8515077e+01  -4.5500548e+00   1.4168637e+01
   5.8657428e+01  -5.6175878e+00   1.7091945e+01
   7.8811057e+01  -6.5587987e+00   2.0906029e+01
  -7.9292747e+01   1.9938876e+01   1.0304920e+01
  -5.9641153e+01   1.9961666e+01   1.0787639e+01
  -3.9406358e+01   1.9129897e+01   1.1034171e+01
  -2.1098898e+01   1.8579781e+01   1.1350403e+01
  -1.0322933e+00   1.7070593e+01   1.1915411e+01
   1.9900043e+01   1.6233563e+01   1.2993140e+01
   3.9874263e+01   1.5488083e+01   1.4630935e+01
   5.8956389e+01   1.4856058e+01   1.7491619e+01
   7.9919789e+01   1.4180040e+01   1.9425732e+01
  -7.8168071e+01   4.0248427e+01   6.6380767e+00
  -5.9398814e+01   3.9455782e+01   6.9720560e+00
  -3.8039330e+01   3.9512186e+01   7.6554336e+00
  -1.8989459e+01   3.7595558e+01   8.1757136e+00
   8.2258838e-01   3.6517210e+01   8.8311167e+00
   2.0554796e+01   3.5649996e+01   1.0350668e+01
   4.0184824e+01   3.5454586e+01   1.1846796e+01
   6.0464527e+01   3.4733313e+01   1.4051089e+01
   8.1112057e+01   3.3049615e+01   1.5869520e+01
  -7.7344315e+01   5.8624060e+01  -2.3347541e+00
  -5.7490153e+01   5.7581556e+01  -1.8848689e+00
  -3.7649298e+01   5.6682677e+01  -5.5522644e-01
  -1.7255178e+01   5.6502154e+01   5.8765761e-01
   2.7317791e+00   5.6115096e+01   1.3538250e+00
   2.1865066e+01   5.5180301e+01   2.6459148e+00
   4.1345712e+01   5.4271265e+01   4.0697241e+00
   6.1474684e+01   5.3174369e+01   6.0239387e+00
   8.2356711e+01   5.1515408e+01   7.1231836e+00
  -7.6224773e+01   7.3593671e+01  -1.3619893e+01
  -5.5127169e+01   7.4651404e+01  -1.3182202e+01
  -3.6025769e+01   7.4374642e+01  -1.0841651e+01
  -1.5919337e+01   7.2932432e+01  -1.0469592e+01
   4.1036037e+00   7.2641421e+01  -8.9781435e+00
   2.3155131e+01   7.1584103e+01  -7.6728520e+00
   4.3765563e+01   7.0071885e+01  -6.2901739e+00
   6.3669195e+01   6.8795843e+01  -4.9247211e+00
   8.3892770e+01   6.7783377e+01  -3.2238067e+00
