  -7.7315531e+01  -7.3399903e+01  -1.4829167e+01
  -5.8009895e+01  -7.2887341e+01  -1.1893451e+01
  -3.8435893e+01  -7.2578122e+01  -1.1666882e+01
  -1.8913437e+01  -7.3600687e+01  -9.7693175e+00
   5.5792010e-01  -7.2590456e+01  -8.4117123e+00
   2.1485022e+01  -7.2065911e+01  -8.2127868e+00
   4.1693459e+01  -7.1786534e+01  -6.9440855e+00
   6.1941918e+01  -7.1052258e+01  -4.6972088e+00
   8.1927910e+01  -7.1206267e+01  -3.5476679e+00
  -7.8383928e+01  -5.7491046e+01  -2.7497323e+00
  -5.8076756e+01  -5.6613263e+01  -2.7890227e+00
  -3.9077158e+01  -5.6993845e+01  -7.5556163e-01
  -1.8703569e+01  -5.6885122e+01   1.1504556e+00
   1.7793726e-01  -5.5942049e+01   2.0329470e+00
   2.1575011e+01  -5.6841018e+01   2.7175218e+00
   4.0996786e+01  -5.5222855e+01   4.8790928e+00
   6.1582781e+01  -5.5196431e+01   6.4910207e+00
   8.0109638e+01  -5.3955425e+01   8.3497569e+00
  -7.9441641e+01  -3.9017303e+01   4.6690762e+00
  -6.0678335e+01  -3.8445098e+01   6.3714951e+00
  -4.0368636e+01  -3.7735798e+01   7.7552439e+00
  -2.1186067e+01  -3.8348687e+01   8.2127922e+00
  -8.0757249e-01  -3.7995302e+01   8.8883011e+00
   2.0363914e+01  -3.7187241e+01   1.0285158e+01
   3.9460246e+01  -3.6901597e+01   1.1532587e+01
   5.8904327e+01  -3.6548915e+01   1.3621582e+01
   7.9610521e+01  -3.5941851e+01   1.7419241e+01
  -8.0442522e+01  -1.8866473e+01   8.6773474e+00
  -6.0263087e+01  -1.8389967e+01   9.7724303e+00
  -4.0680111e+01  -1.8391596e+01   1.0198713e+01
  -2.0865528e+01  -1.7747843e+01   1.0371358e+01
  -1.0840791e+00  -1.7875866e+01   1.0624898e+01
   1.8642809e+01  -1.7350036e+01   1.1709596e+01
   3.9119258e+01  -1.7901918e+01   1.3948246e+01
   5.8811995e+01  -1.6654289e+01   1.6852967e+01
   7.8413015e+01  -1.6586066e+01   2.0001726e+01
  -8.0400862e+01   8.7997667e-01   7.8798360e+00
  -6.0445327e+01   5.4850086e-01   9.2044068e+00
  -4.1412016e+01   1.5483242e+00   9.6067476e+00
  -2.1127149e+01   2.0821395e+00   9.4193755e+00
  -1.9129811e+00   2.5287295e+00   9.7470103e+00
   1.9033596e+01   2.4792872e+00   1.1135154e+01
   3.8507119e+01   2.5803104e+00   1.3341380e+01
   5.8704453e+01   2.7966608e+00   1.6065446e+01
   7.9030301e+01   3.2678611e+00   1.8935942e+01
  -7.9946674e+01   1.8712990e+01   1.3695827e+00
  -6.0442856e+01   2.0039872e+01   3.4333350e+00
  -4.0226974e+01   2.0500404e+01   4.5759502e+00
  -2.1925016e+01   2.1275627e+01   4.6315009e+00
  -1.8384629e+00   2.1214099e+01   5.9701931e+00
   1.9091530e+01   2.1698697e+01   7.2837347e+00
   3.9051276e+01   2.2223360e+01   9.1654510e+00
   5.8214815e+01   2.2742534e+01   1.1445741e+01
   7.9140117e+01   2.3432943e+01   1.3751600e+01
  -7.9581174e+01   3.6941646e+01  -8.3654574e+00
  -6.0722202e+01   3.7211999e+01  -6.5505498e+00
  -3.9400996e+01   3.8425238e+01  -5.7555759e+00
  -2.0302955e+01   3.8411839e+01  -4.3042330e+00
  -5.3234305e-01   3.8988949e+01  -2.6014557e+00
   1.9205012e+01   3.9562054e+01  -1.0110321e+00
   3.8816040e+01   4.0418777e+01   5.0165451e-01
   5.9152794e+01   4.0684554e+01   2.2311877e+00
   7.9793736e+01   4.0423424e+01   4.7501925e+00
  -7.8949164e+01   5.1608190e+01  -2.2625445e+01
  -5.9464378e+01   5.2389373e+01  -1.9918309e+01
  -3.9614089e+01   5.2608901e+01  -1.8450895e+01
  -1.9283763e+01   5.4196173e+01  -1.7260379e+01
   6.7220171e-01   5.5096431e+01  -1.6181355e+01
   1.9779977e+01   5.5472692e+01  -1.4343597e+01
   3.9167214e+01   5.6370639e+01  -1.1960769e+01
   5.9260579e+01   5.6689532e+01  -9.4403274e+00
   8.0210885e+01   5.6148529e+01  -8.5394681e+00
  -7.8327725e+01   6.4438310e+01  -3.6325766e+01
  -5.7212427e+01   6.4913093e+01  -3.6125662e+01
  -3.8264839e+01   6.5835064e+01  -3.4093789e+01
  -1.8169365e+01   6.6646571e+01  -3.2679427e+01
   1.8345713e+00   6.7640788e+01  -3.1236757e+01
   2.0821009e+01   6.8246840e+01  -2.9016334e+01
   4.1346364e+01   6.8768593e+01  -2.6291249e+01
   6.1177996e+01   6.9475956e+01  -2.3871883e+01
   8.1353731e+01   7.0272072e+01  -2.1587788e+01
