  -7.9560920e+01  -7.3816139e+01   1.4757732e+01
  -6.0111018e+01  -7.3000202e+01   1.6377680e+01
  -4.0572005e+01  -7.2516695e+01   1.7507968e+01
  -2.0944309e+01  -7.2884289e+01   1.8036551e+01
  -1.4335372e+00  -7.1827744e+01   1.8495810e+01
   1.9496856e+01  -7.1453176e+01   1.8687189e+01
   3.9652561e+01  -7.0555782e+01   2.0422373e+01
   5.9949138e+01  -6.8980268e+01   2.1496791e+01
   7.9967255e+01  -6.9081477e+01   2.1273613e+01
  -8.0083947e+01  -5.4320262e+01   1.9205557e+01
  -5.9761728e+01  -5.3845148e+01   1.9115595e+01
  -4.0696559e+01  -5.3709778e+01   2.0444322e+01
  -2.0246886e+01  -5.3136504e+01   2.0902672e+01
  -1.3588360e+00  -5.2043221e+01   2.1377824e+01
   2.0024078e+01  -5.2763773e+01   2.2545459e+01
   3.9395811e+01  -5.0540548e+01   2.4616544e+01
   5.9902633e+01  -5.0376714e+01   2.7030175e+01
   7.8480224e+01  -4.9428661e+01   2.8518033e+01
  -8.0545639e+01  -3.4492329e+01   1.7186498e+01
  -6.1762716e+01  -3.3384373e+01   1.8309668e+01
  -4.1416981e+01  -3.2528422e+01   1.8778890e+01
  -2.2239456e+01  -3.3042450e+01   1.9495998e+01
  -1.8562466e+00  -3.2569794e+01   1.9902951e+01
   1.9324362e+01  -3.1603744e+01   2.1036342e+01
   3.8345763e+01  -3.1076118e+01   2.3089511e+01
   5.7667429e+01  -3.0382018e+01   2.6047889e+01
   7.8412629e+01  -2.9278890e+01   2.9505779e+01
  -8.1184795e+01  -1.4633927e+01   1.1861156e+01
  -6.0997712e+01  -1.3872788e+01   1.2594785e+01
  -4.1517842e+01  -1.3479471e+01   1.4608399e+01
  -2.1721688e+01  -1.2741534e+01   1.5401902e+01
  -1.9490929e+00  -1.2743194e+01   1.6058310e+01
   1.7763546e+01  -1.2056038e+01   1.7300437e+01
   3.8215972e+01  -1.2204433e+01   1.9805894e+01
   5.7948095e+01  -1.0594431e+01   2.2224393e+01
   7.7620198e+01  -1.0287034e+01   2.4876398e+01
  -8.0193541e+01   1.9288154e+00   1.1255593e+00
  -6.0291333e+01   2.4471712e+00   2.9936717e+00
  -4.1468803e+01   4.2446336e+00   5.4247052e+00
  -2.1308300e+01   5.4293697e+00   7.4112640e+00
  -2.1223268e+00   6.1762105e+00   8.3232355e+00
   1.8723866e+01   6.6492080e+00   1.0752439e+01
   3.8142732e+01   7.2462663e+00   1.3330586e+01
   5.8364537e+01   7.7838491e+00   1.5818410e+01
   7.8751350e+01   8.4106098e+00   1.8182076e+01
  -7.9063113e+01   1.6232354e+01  -1.1313772e+01
  -5.9562275e+01   1.8209620e+01  -9.8216510e+00
  -3.9547087e+01   1.9377121e+01  -6.9530741e+00
  -2.1353623e+01   2.0655900e+01  -5.2418391e+00
  -1.3621150e+00   2.1477587e+01  -3.0214954e+00
   1.9461203e+01   2.2527901e+01  -7.1690915e-01
   3.9278025e+01   2.3844497e+01   2.0701538e+00
   5.8346266e+01   2.5066367e+01   4.8305304e+00
   7.9255705e+01   2.6070822e+01   7.1647020e+00
  -7.7954784e+01   3.0451663e+01  -2.6272762e+01
  -5.9037958e+01   3.0742888e+01  -2.5225554e+01
  -3.8003973e+01   3.3162803e+01  -2.2325000e+01
  -1.9050547e+01   3.3502202e+01  -1.9587449e+01
   6.5947551e-01   3.4732045e+01  -1.7559614e+01
   2.0259737e+01   3.5946576e+01  -1.4956581e+01
   3.9595767e+01   3.8213395e+01  -1.2025018e+01
   5.9771352e+01   3.9542327e+01  -9.2276609e+00
   8.0337714e+01   3.9898034e+01  -6.1682068e+00
  -7.7010590e+01   4.2110839e+01  -4.3066400e+01
  -5.7052333e+01   4.3168769e+01  -4.1109085e+01
  -3.7332461e+01   4.3336570e+01  -3.8400956e+01
  -1.7200113e+01   4.5707807e+01  -3.5886062e+01
   2.7348189e+00   4.6882019e+01  -3.4688149e+01
   2.1667045e+01   4.8145386e+01  -3.1755452e+01
   4.0906476e+01   4.9971031e+01  -2.8778796e+01
   6.0779669e+01   5.1714748e+01  -2.5284046e+01
   8.1192729e+01   5.3608369e+01  -2.1509774e+01
  -7.3904851e+01   5.3323718e+01  -5.7808269e+01
  -5.4240943e+01   5.5402316e+01  -5.7450123e+01
  -3.5179327e+01   5.5145261e+01  -5.3985890e+01
  -1.5136730e+01   5.6598658e+01  -5.2352184e+01
   4.8668800e+00   5.7814903e+01  -5.1085864e+01
   2.3628142e+01   5.9530935e+01  -4.7791523e+01
   4.3931604e+01   6.1333369e+01  -4.4116042e+01
   6.3493055e+01   6.3064334e+01  -4.0752186e+01
   8.2635912e+01   6.5621750e+01  -3.6872990e+01
