  -8.0024077e+01  -5.9282000e+01  -4.0196364e+01
  -6.0520206e+01  -5.8973242e+01  -3.9151190e+01
  -4.1027947e+01  -6.0413652e+01  -3.8026205e+01
  -2.1409151e+01  -6.1341145e+01  -3.7902608e+01
  -1.9156893e+00  -6.1485522e+01  -3.6494944e+01
   1.8977118e+01  -6.2658907e+01  -3.5884962e+01
   3.9185796e+01  -6.3503841e+01  -3.4903100e+01
   5.9521051e+01  -6.3722254e+01  -3.3482759e+01
   7.9445223e+01  -6.5194008e+01  -3.2199645e+01
  -8.0400381e+01  -4.8329465e+01  -2.3461785e+01
  -6.0049353e+01  -4.8862697e+01  -2.3112892e+01
  -4.1057957e+01  -5.0525201e+01  -2.1761043e+01
  -2.0641042e+01  -5.1225223e+01  -2.0583158e+01
  -1.7286377e+00  -5.1059081e+01  -1.9895543e+01
   1.9562866e+01  -5.3441576e+01  -1.9568226e+01
   3.9091379e+01  -5.3132058e+01  -1.7825362e+01
   5.9373822e+01  -5.4560491e+01  -1.6372730e+01
   7.7794396e+01  -5.5578525e+01  -1.3564637e+01
  -8.0904724e+01  -3.5194355e+01  -8.9732559e+00
  -6.2103702e+01  -3.5655648e+01  -7.7098942e+00
  -4.1796792e+01  -3.6201799e+01  -6.2156245e+00
  -2.2694448e+01  -3.8085423e+01  -5.8863827e+00
  -2.3260463e+00  -3.8893891e+01  -5.3042970e+00
   1.8825042e+01  -3.9939784e+01  -3.7636559e+00
   3.7892202e+01  -4.1030920e+01  -2.5144884e+00
   5.7384198e+01  -4.1666991e+01  -1.0251591e+00
   7.8093318e+01  -4.3299639e+01   2.4395216e+00
  -8.1213400e+01  -1.7614225e+01   1.7022869e+00
  -6.1157763e+01  -1.8943981e+01   3.8561105e+00
  -4.1614178e+01  -2.0180364e+01   4.2969256e+00
  -2.1848748e+01  -2.1116699e+01   5.5269625e+00
  -2.1186143e+00  -2.2540464e+01   5.8117281e+00
   1.7587215e+01  -2.3399180e+01   7.0551470e+00
   3.8068209e+01  -2.5256371e+01   8.3516125e+00
   5.7803303e+01  -2.5654698e+01   1.1209109e+01
   7.7524579e+01  -2.6911304e+01   1.3109510e+01
  -8.0338656e+01   6.5430740e-01   9.1893161e+00
  -6.0451883e+01  -1.0227397e+00   9.9677625e+00
  -4.1407390e+01  -1.3590373e+00   1.0756819e+01
  -2.1130128e+01  -2.1105913e+00   1.1009239e+01
  -1.9194809e+00  -2.7754230e+00   1.1018336e+01
   1.8995576e+01  -4.2497662e+00   1.2055270e+01
   3.8437432e+01  -5.5911352e+00   1.4131478e+01
   5.8586847e+01  -7.0350229e+00   1.6836274e+01
   7.8913708e+01  -8.1326211e+00   1.9522522e+01
  -7.9258186e+01   1.9528641e+01   1.0977670e+01
  -5.9684838e+01   1.9099996e+01   1.2743722e+01
  -3.9456664e+01   1.8102495e+01   1.2583847e+01
  -2.1144562e+01   1.7621512e+01   1.2619888e+01
  -1.0672823e+00   1.6175775e+01   1.2899513e+01
   1.9850090e+01   1.5220331e+01   1.4154706e+01
   3.9784849e+01   1.4349377e+01   1.6168267e+01
   5.8917093e+01   1.3369587e+01   1.8557347e+01
   7.9798757e+01   1.2601281e+01   2.1208343e+01
  -7.8014593e+01   4.0013963e+01   8.5294986e+00
  -5.9361270e+01   3.8703603e+01   9.5449940e+00
  -3.8000308e+01   3.8616105e+01   1.0176950e+01
  -1.8965990e+01   3.6852265e+01   1.1370837e+01
   8.3819058e-01   3.5852144e+01   1.2321520e+01
   2.0604204e+01   3.4876566e+01   1.3201341e+01
   4.0240523e+01   3.4433909e+01   1.4555456e+01
   6.0512233e+01   3.3453008e+01   1.6732860e+01
   8.1095934e+01   3.1680775e+01   1.9106144e+01
  -7.7399588e+01   5.9090307e+01   1.1424124e+00
  -5.7431692e+01   5.7871327e+01   3.2595425e+00
  -3.7589160e+01   5.6740359e+01   4.3687486e+00
  -1.7182177e+01   5.6236706e+01   5.1172643e+00
   2.8112744e+00   5.5765589e+01   5.6224714e+00
   2.1962216e+01   5.4664872e+01   6.4323304e+00
   4.1394060e+01   5.3754997e+01   8.4134258e+00
   6.1520693e+01   5.2258330e+01   1.0109379e+01
   8.2394373e+01   5.0812500e+01   1.1598872e+01
  -7.5900683e+01   7.5390332e+01  -8.0640759e+00
  -5.4794732e+01   7.5492669e+01  -7.0907148e+00
  -3.5169600e+01   7.4177119e+01  -6.1933121e+00
  -1.5387852e+01   7.3483233e+01  -4.5439476e+00
   4.6799445e+00   7.2795237e+01  -4.3503838e+00
   2.3734353e+01   7.1794042e+01  -3.0428971e+00
   4.4300011e+01   6.9379371e+01  -2.5829172e+00
   6.4152843e+01   6.8234976e+01  -5.3287068e-01
   8.3535936e+01   6.7703102e+01   1.8092438e+00
