  -8.1390674e+01  -7.1661338e+01   1.3863987e+01
  -6.1880078e+01  -7.0881270e+01   1.4426830e+01
  -4.2318009e+01  -7.0479172e+01   1.3754293e+01
  -2.2710401e+01  -7.1594635e+01   1.3489497e+01
  -3.1855945e+00  -7.0830557e+01   1.3047319e+01
   1.7722435e+01  -7.0673627e+01   1.2223306e+01
   3.7955230e+01  -6.9835587e+01   1.2240921e+01
   5.8292583e+01  -6.8723928e+01   1.3103450e+01
   7.8147718e+01  -6.8439830e+01   1.1420430e+01
  -8.1645168e+01  -5.2282544e+01   1.8818131e+01
  -6.1301514e+01  -5.2466277e+01   1.9638068e+01
  -4.2200381e+01  -5.2828283e+01   1.9108690e+01
  -2.1738249e+01  -5.2769791e+01   1.9268672e+01
  -2.8253581e+00  -5.2195074e+01   1.9658160e+01
   1.8582911e+01  -5.3086191e+01   1.9598937e+01
   3.8058840e+01  -5.1434756e+01   2.1166462e+01
   5.8665468e+01  -5.1721701e+01   2.2457483e+01
   7.7298603e+01  -5.1057743e+01   2.3235185e+01
  -8.1677773e+01  -3.2356920e+01   1.8181653e+01
  -6.2843776e+01  -3.1966067e+01   1.8825945e+01
  -4.2482707e+01  -3.1571636e+01   1.9241861e+01
  -2.3312919e+01  -3.2590281e+01   1.9435644e+01
  -2.9225440e+00  -3.2659951e+01   1.9738947e+01
   1.8263214e+01  -3.1905378e+01   2.0934896e+01
   3.7312520e+01  -3.1963823e+01   2.2786410e+01
   5.6689822e+01  -3.1899722e+01   2.5446603e+01
   7.7604574e+01  -3.1426321e+01   2.7872764e+01
  -8.1599052e+01  -1.3056644e+01   1.1067085e+01
  -6.1607285e+01  -1.2251765e+01   1.3951060e+01
  -4.2056986e+01  -1.2514276e+01   1.5130714e+01
  -2.2251692e+01  -1.2193230e+01   1.5972834e+01
  -2.5009860e+00  -1.2652884e+01   1.7014329e+01
   1.7207567e+01  -1.2133173e+01   1.8394927e+01
   3.7674552e+01  -1.2931590e+01   2.0645729e+01
   5.7454204e+01  -1.1908493e+01   2.2994465e+01
   7.7077545e+01  -1.1959179e+01   2.6001321e+01
  -8.0244409e+01   3.4700202e+00   3.1560335e-01
  -6.0560444e+01   3.6499735e+00   3.7011697e+00
  -4.1764574e+01   5.4124991e+00   6.3539414e+00
  -2.1615501e+01   6.2381237e+00   8.6186952e+00
  -2.4759039e+00   6.6688480e+00   1.0345349e+01
   1.8368372e+01   6.8758428e+00   1.2827647e+01
   3.7823296e+01   6.8300151e+00   1.5193984e+01
   5.8054557e+01   6.8047161e+00   1.7662804e+01
   7.8436453e+01   7.0014535e+00   2.0141017e+01
  -7.8465837e+01   1.6945049e+01  -1.2945858e+01
  -5.9153748e+01   1.8414619e+01  -1.0200098e+01
  -3.9180815e+01   1.9549423e+01  -7.0388237e+00
  -2.1179967e+01   2.1352622e+01  -4.1606838e+00
  -1.2629274e+00   2.1745105e+01  -1.2584472e+00
   1.9454938e+01   2.3023107e+01   1.7683644e+00
   3.9209621e+01   2.4053827e+01   5.0695326e+00
   5.8294380e+01   2.4784265e+01   7.8889135e+00
   7.9101543e+01   2.5711372e+01   1.1029672e+01
  -7.5823568e+01   2.8795338e+01  -2.9672410e+01
  -5.7400100e+01   2.9944631e+01  -2.6281811e+01
  -3.6789992e+01   3.2448455e+01  -2.3058226e+01
  -1.7943788e+01   3.2572132e+01  -1.9645448e+01
   1.5029887e+00   3.4198693e+01  -1.6370768e+01
   2.0956658e+01   3.5816677e+01  -1.3000609e+01
   4.0152647e+01   3.8256807e+01  -9.3709585e+00
   6.0168205e+01   3.9647944e+01  -5.6176015e+00
   8.0599354e+01   4.0007378e+01  -1.7574215e+00
  -7.4626840e+01   4.1413449e+01  -4.5741177e+01
  -5.4718496e+01   4.1478892e+01  -4.2725705e+01
  -3.5403913e+01   4.2714682e+01  -3.9029332e+01
  -1.5220597e+01   4.4187372e+01  -3.6250150e+01
   4.4640397e+00   4.6319331e+01  -3.3389189e+01
   2.3326437e+01   4.7912411e+01  -3.0180127e+01
   4.2209593e+01   5.0473431e+01  -2.5796436e+01
   6.1561087e+01   5.3213087e+01  -2.0484975e+01
   8.2131249e+01   5.4285100e+01  -1.6517766e+01
  -7.3398179e+01   5.3484373e+01  -5.9619382e+01
  -5.2336999e+01   5.1939598e+01  -6.0297446e+01
  -3.3154508e+01   5.3704092e+01  -5.6223081e+01
  -1.3310636e+01   5.4886253e+01  -5.2860006e+01
   6.4859347e+00   5.6716009e+01  -5.0035998e+01
   2.5152912e+01   5.8317584e+01  -4.6193950e+01
   4.4972059e+01   6.1051662e+01  -4.0835339e+01
   6.3914674e+01   6.4457956e+01  -3.5429618e+01
   8.3561765e+01   6.7269430e+01  -3.1070882e+01
