  -8.1206001e+01  -7.7832723e+01   3.7939802e+00
  -6.1909749e+01  -7.7559670e+01   4.8417380e+00
  -4.2572300e+01  -7.7971882e+01   6.0474304e+00
  -2.3045039e+01  -7.9253375e+01   7.7256812e+00
  -3.5150241e+00  -7.9110634e+01   8.4710309e+00
   1.7361254e+01  -7.9754034e+01   9.8941737e+00
   3.7588286e+01  -8.0083714e+01   1.0803639e+01
   5.7917236e+01  -8.0131185e+01   1.2326530e+01
   7.7820501e+01  -8.2202079e+01   1.1729444e+01
  -8.0956068e+01  -5.7873316e+01   2.4879872e+00
  -6.0644360e+01  -5.8273879e+01   3.8460796e+00
  -4.1568551e+01  -5.9024493e+01   4.7486527e+00
  -2.1131759e+01  -5.9333469e+01   5.7335020e+00
  -2.2317526e+00  -5.9142093e+01   6.6992064e+00
   1.9095162e+01  -6.0850981e+01   7.8628068e+00
   3.8612206e+01  -5.9708090e+01   9.3711110e+00
   5.9136766e+01  -6.0784445e+01   1.1362619e+01
   7.7767071e+01  -6.1177222e+01   1.2361057e+01
  -8.0430996e+01  -3.8002438e+01   9.6839619e-01
  -6.1592523e+01  -3.7846783e+01   1.5807939e+00
  -4.1232589e+01  -3.7922979e+01   2.1882407e+00
  -2.2107308e+01  -3.9280387e+01   3.1562397e+00
  -1.7453903e+00  -3.9778323e+01   4.1605283e+00
   1.9441662e+01  -3.9754363e+01   5.5548954e+00
   3.8505054e+01  -4.0279874e+01   7.1730677e+00
   5.7941322e+01  -4.0782431e+01   9.3036804e+00
   7.8907484e+01  -4.1064821e+01   1.1272812e+01
  -8.0250870e+01  -1.7696694e+01  -2.3131027e+00
  -6.0096095e+01  -1.7691346e+01  -7.5718494e-01
  -4.0535482e+01  -1.8588885e+01  -2.5564568e-01
  -2.0731536e+01  -1.8761472e+01   6.5858480e-01
  -1.0012799e+00  -1.9743266e+01   1.7260442e+00
   1.8718584e+01  -1.9966251e+01   3.0223608e+00
   3.9190451e+01  -2.1262793e+01   4.9775331e+00
   5.8993685e+01  -2.0754820e+01   7.2952431e+00
   7.8734666e+01  -2.1610242e+01   9.2138917e+00
  -7.9377046e+01   1.8650817e+00  -4.9839471e+00
  -5.9449848e+01   1.0534865e+00  -3.4469862e+00
  -4.0398659e+01   1.2134777e+00  -2.7724313e+00
  -2.0139481e+01   9.5121396e-01  -1.6354085e+00
  -9.4103719e-01   5.4365483e-01  -7.7245429e-01
   1.9982296e+01  -3.0085177e-01   7.0722546e-01
   3.9493152e+01  -9.2108898e-01   2.4500628e+00
   5.9731123e+01  -1.4620477e+00   4.8019830e+00
   8.0126488e+01  -1.8757183e+00   7.1386179e+00
  -7.8557649e+01   2.0582473e+01  -8.0813504e+00
  -5.8943032e+01   2.1082328e+01  -6.8831817e+00
  -3.8734735e+01   2.0577296e+01  -5.6304892e+00
  -2.0448659e+01   2.0531862e+01  -4.5427952e+00
  -3.8433795e-01   1.9426238e+01  -3.3319612e+00
   2.0549016e+01   1.9101430e+01  -2.0227543e+00
   4.0504037e+01   1.8989756e+01  -2.4693003e-02
   5.9692825e+01   1.8837469e+01   2.0913665e+00
   8.0637852e+01   1.8747200e+01   4.3183810e+00
  -7.7985451e+01   4.0931449e+01  -1.1656303e+01
  -5.9174738e+01   4.0642829e+01  -1.0343106e+01
  -3.7845273e+01   4.0953471e+01  -9.0565862e+00
  -1.8810658e+01   3.9647573e+01  -7.3773585e+00
   1.0047538e+00   3.8911084e+01  -6.4199409e+00
   2.0716491e+01   3.8651819e+01  -4.4702464e+00
   4.0338056e+01   3.9059733e+01  -2.9074342e+00
   6.0598284e+01   3.8888442e+01  -4.2967228e-01
   8.1115017e+01   3.7737222e+01   1.2720090e+00
  -7.8140192e+01   6.1195521e+01  -1.4519451e+01
  -5.8005119e+01   6.0459109e+01  -1.4414818e+01
  -3.8228476e+01   5.9711421e+01  -1.2279209e+01
  -1.7874520e+01   5.9823140e+01  -1.0557900e+01
   2.1069777e+00   5.9745944e+01  -9.5836928e+00
   2.1249181e+01   5.9500257e+01  -8.1202450e+00
   4.0758857e+01   5.9189245e+01  -6.8454992e+00
   6.0670899e+01   5.8711040e+01  -4.1781859e+00
   8.1246359e+01   5.8095753e+01  -1.8233101e+00
  -7.7640845e+01   7.9246281e+01  -1.9678685e+01
  -5.6645877e+01   8.0604914e+01  -1.8352567e+01
  -3.7056352e+01   7.9754995e+01  -1.6560933e+01
  -1.6998332e+01   7.9239675e+01  -1.4586772e+01
   3.0638888e+00   7.9104790e+01  -1.3740387e+01
   2.2160204e+01   7.8688053e+01  -1.2771127e+01
   4.2706106e+01   7.7933134e+01  -1.1130364e+01
   6.1949126e+01   7.7382057e+01  -8.7978388e+00
   8.1668852e+01   7.7000521e+01  -6.8096696e+00
