  -7.9872469e+01  -5.9756050e+01  -3.7624566e+01
  -6.0371902e+01  -6.0897886e+01  -3.7511468e+01
  -4.0815621e+01  -6.1029828e+01  -3.6604283e+01
  -2.1211357e+01  -6.2096919e+01  -3.6050372e+01
  -1.7080782e+00  -6.1977400e+01  -3.4783393e+01
   1.9091505e+01  -6.4068876e+01  -3.3660296e+01
   3.9337662e+01  -6.3963870e+01  -3.3272060e+01
   5.9620259e+01  -6.4775957e+01  -3.1389384e+01
   7.9548151e+01  -6.4573356e+01  -2.9485933e+01
  -8.0313393e+01  -4.9700042e+01  -2.2253678e+01
  -6.0009982e+01  -4.9864393e+01  -2.1736444e+01
  -4.1162393e+01  -5.1566446e+01  -2.0091803e+01
  -2.0738504e+01  -5.2139194e+01  -1.8967259e+01
  -1.8326522e+00  -5.2264020e+01  -1.8111315e+01
   1.9529982e+01  -5.3921344e+01  -1.8163437e+01
   3.9037313e+01  -5.3901505e+01  -1.6173509e+01
   5.9608769e+01  -5.4892566e+01  -1.4685158e+01
   7.8111724e+01  -5.5070862e+01  -1.2266827e+01
  -8.0826589e+01  -3.5007595e+01  -8.7887124e+00
  -6.2120116e+01  -3.5830501e+01  -6.8775819e+00
  -4.1824141e+01  -3.6419630e+01  -5.2564523e+00
  -2.2721448e+01  -3.8305208e+01  -4.9603700e+00
  -2.3878335e+00  -3.9488431e+01  -3.9562120e+00
   1.8790419e+01  -4.0231537e+01  -2.6275248e+00
   3.7879075e+01  -4.1036781e+01  -1.4950965e+00
   5.7315866e+01  -4.1880846e+01   5.1966416e-01
   7.8107683e+01  -4.2797293e+01   3.7441974e+00
  -8.1303892e+01  -1.7970561e+01   2.7280394e+00
  -6.1187144e+01  -1.8957973e+01   4.4535443e+00
  -4.1637355e+01  -2.0137162e+01   4.7534187e+00
  -2.1827271e+01  -2.0738275e+01   5.2644485e+00
  -2.1148005e+00  -2.2270217e+01   5.9412467e+00
   1.7543626e+01  -2.3280810e+01   7.7099128e+00
   3.8021040e+01  -2.5092943e+01   9.1215582e+00
   5.7737537e+01  -2.5400334e+01   1.2115413e+01
   7.7353045e+01  -2.6723990e+01   1.4872050e+01
  -8.0384370e+01   8.1823623e-01   8.7857317e+00
  -6.0455051e+01  -7.2033538e-01   9.5401955e+00
  -4.1391316e+01  -7.4918403e-01   9.5001810e+00
  -2.1127110e+01  -1.6130311e+00   1.0141762e+01
  -1.9232368e+00  -2.4139710e+00   1.0388321e+01
   1.8983797e+01  -3.8760084e+00   1.1591193e+01
   3.8425130e+01  -5.1216009e+00   1.3730993e+01
   5.8543711e+01  -6.4954243e+00   1.6689875e+01
   7.8727774e+01  -7.6315605e+00   2.0283576e+01
  -7.9313928e+01   1.9728879e+01   1.0145072e+01
  -5.9674904e+01   1.9541585e+01   1.0977118e+01
  -3.9442951e+01   1.8706590e+01   1.1389980e+01
  -2.1135936e+01   1.8125276e+01   1.1674544e+01
  -1.0642251e+00   1.6580855e+01   1.1756397e+01
   1.9860298e+01   1.5661154e+01   1.2915404e+01
   3.9777863e+01   1.4873834e+01   1.5124103e+01
   5.8835977e+01   1.3936327e+01   1.8060057e+01
   7.9687051e+01   1.3157148e+01   2.0938861e+01
  -7.8252748e+01   4.0114763e+01   6.9080763e+00
  -5.9339582e+01   3.9081330e+01   7.4100650e+00
  -3.8001280e+01   3.9169805e+01   8.5791560e+00
  -1.8977940e+01   3.7307283e+01   9.7978826e+00
   8.3493967e-01   3.6220414e+01   1.0412788e+01
   2.0583622e+01   3.5312287e+01   1.1672139e+01
   4.0178825e+01   3.4912503e+01   1.3538355e+01
   6.0407228e+01   3.4010394e+01   1.6115838e+01
   8.0944462e+01   3.2242413e+01   1.8865077e+01
  -7.6525822e+01   5.9160416e+01  -3.8129869e-01
  -5.7447225e+01   5.7884464e+01   9.6176252e-02
  -3.7671948e+01   5.7115880e+01   2.2370141e+00
  -1.7263116e+01   5.6260911e+01   2.3236115e+00
   2.6904256e+00   5.6160425e+01   3.7593600e+00
   2.1812671e+01   5.4825323e+01   4.8471224e+00
   4.1228500e+01   5.3896012e+01   6.9710617e+00
   6.1355476e+01   5.1923457e+01   8.0717581e+00
   8.2173892e+01   5.0539159e+01   1.0238971e+01
  -7.6663591e+01   7.4786286e+01  -1.0087104e+01
  -5.5551545e+01   7.5305540e+01  -1.0743824e+01
  -3.5966771e+01   7.4171944e+01  -9.0605540e+00
  -1.5894603e+01   7.3197205e+01  -7.4342066e+00
   4.1345060e+00   7.2639418e+01  -6.1109858e+00
   2.3155198e+01   7.1555517e+01  -4.4314508e+00
   4.3658023e+01   7.0402862e+01  -1.7306997e+00
   6.3513696e+01   6.8380877e+01  -5.8565238e-01
   8.3727259e+01   6.6374453e+01  -1.1304190e+00
