  -7.9962127e+01  -5.8243197e+01  -4.3375828e+01
  -6.0476901e+01  -5.8446327e+01  -4.2007101e+01
  -4.1006512e+01  -6.0180448e+01  -4.0918389e+01
  -2.1377934e+01  -6.0880590e+01  -4.0955432e+01
  -1.8988513e+00  -6.1166015e+01  -3.9380216e+01
   1.8965739e+01  -6.2384431e+01  -3.8179114e+01
   3.9159737e+01  -6.3155215e+01  -3.6884153e+01
   5.9439261e+01  -6.3602183e+01  -3.4852205e+01
   7.9388293e+01  -6.5089300e+01  -3.4071381e+01
  -8.0379049e+01  -4.7647311e+01  -2.6414131e+01
  -6.0033646e+01  -4.8415589e+01  -2.6202627e+01
  -4.0995790e+01  -4.9649534e+01  -2.5061606e+01
  -2.0580434e+01  -5.0336367e+01  -2.3849427e+01
  -1.7854860e+00  -5.1331357e+01  -2.1864640e+01
   1.9563098e+01  -5.3123912e+01  -2.1495464e+01
   3.9063212e+01  -5.3196419e+01  -1.9437199e+01
   5.9598546e+01  -5.4500339e+01  -1.7710333e+01
   7.8085909e+01  -5.5160954e+01  -1.5573324e+01
  -8.0835017e+01  -3.4285547e+01  -1.2450787e+01
  -6.2100026e+01  -3.5247196e+01  -1.0617035e+01
  -4.1844391e+01  -3.6136676e+01  -8.8191938e+00
  -2.2730874e+01  -3.7858178e+01  -8.3036019e+00
  -2.4128657e+00  -3.9153506e+01  -7.1353068e+00
   1.8769692e+01  -3.9867605e+01  -5.8604281e+00
   3.7816034e+01  -4.0900347e+01  -4.2863046e+00
   5.7214433e+01  -4.2044406e+01  -2.0605850e+00
   7.7961784e+01  -4.2729981e+01   3.1531916e-01
  -8.1214834e+01  -1.7680240e+01  -3.5600032e-01
  -6.1092648e+01  -1.8752553e+01   1.2513693e+00
  -4.1595245e+01  -2.0216479e+01   2.4273357e+00
  -2.1785371e+01  -2.0794922e+01   2.9715757e+00
  -2.0997216e+00  -2.2504619e+01   3.9403541e+00
   1.7551879e+01  -2.3685816e+01   5.6789081e+00
   3.7990691e+01  -2.5692980e+01   7.3603682e+00
   5.7758304e+01  -2.5908204e+01   1.0004807e+01
   7.7382138e+01  -2.7484380e+01   1.2562170e+01
  -8.0416222e+01   4.1399017e-01   7.5510284e+00
  -6.0498708e+01  -1.2193373e+00   8.4106295e+00
  -4.1454111e+01  -1.4512054e+00   9.2340318e+00
  -2.1183807e+01  -2.2908066e+00   9.6876201e+00
  -1.9972569e+00  -3.2520763e+00   1.0353429e+01
   1.8890811e+01  -4.8344859e+00   1.1722034e+01
   3.8306690e+01  -6.2866952e+00   1.3960438e+01
   5.8400589e+01  -7.7657642e+00   1.7034072e+01
   7.8627732e+01  -9.1869466e+00   2.0265920e+01
  -7.9316366e+01   1.9057796e+01   1.0986854e+01
  -5.9681223e+01   1.8792383e+01   1.1886486e+01
  -3.9450069e+01   1.7875008e+01   1.2128144e+01
  -2.1139545e+01   1.7381595e+01   1.1911344e+01
  -1.0850477e+00   1.5683656e+01   1.2358140e+01
   1.9823558e+01   1.4645612e+01   1.3691367e+01
   3.9709018e+01   1.3640077e+01   1.6092403e+01
   5.8751466e+01   1.2606773e+01   1.9097052e+01
   7.9615039e+01   1.1554661e+01   2.1792661e+01
  -7.8218408e+01   3.9655500e+01   9.6763207e+00
  -5.9328827e+01   3.8621959e+01   1.0745588e+01
  -3.7959141e+01   3.8472881e+01   1.0635803e+01
  -1.8903465e+01   3.6633862e+01   1.1219727e+01
   8.7590272e-01   3.5363060e+01   1.2347235e+01
   2.0588094e+01   3.4331790e+01   1.4016691e+01
   4.0163554e+01   3.3911605e+01   1.6075677e+01
   6.0407845e+01   3.2756473e+01   1.8416584e+01
   8.0980599e+01   3.0711538e+01   2.0662041e+01
  -7.7424968e+01   5.9099679e+01   3.4723084e+00
  -5.7359184e+01   5.7901908e+01   4.8521914e+00
  -3.7501935e+01   5.6875684e+01   5.7859934e+00
  -1.7102410e+01   5.6510391e+01   6.7783885e+00
   2.8636761e+00   5.5888321e+01   7.8663802e+00
   2.1993614e+01   5.4569762e+01   8.8322385e+00
   4.1405483e+01   5.3482115e+01   1.0916833e+01
   6.1497425e+01   5.1868784e+01   1.2893867e+01
   8.2376851e+01   5.0099143e+01   1.3862096e+01
  -7.5817292e+01   7.4990513e+01  -6.4066464e+00
  -5.4737033e+01   7.5712221e+01  -5.1732851e+00
  -3.5168108e+01   7.5261696e+01  -3.0434936e+00
  -1.5313923e+01   7.3720931e+01  -2.9478628e+00
   4.6937210e+00   7.3383922e+01  -1.2721963e+00
   2.3711857e+01   7.1842954e+01   3.8648029e-02
   4.4279673e+01   6.9748825e+01   1.2908701e+00
   6.4135854e+01   6.8440534e+01   3.2060042e+00
   8.3696159e+01   6.6912935e+01   3.9631883e+00
