  -7.8644461e+01  -5.6101572e+01  -4.8636493e+01
  -5.9729344e+01  -5.6261171e+01  -4.6816732e+01
  -4.0284928e+01  -5.8243727e+01  -4.5688615e+01
  -2.0648064e+01  -5.8633731e+01  -4.5807540e+01
  -1.1868182e+00  -5.9104986e+01  -4.4065341e+01
   1.9546823e+01  -6.1321149e+01  -4.2204413e+01
   3.9781434e+01  -6.1505502e+01  -4.1432970e+01
   5.9732359e+01  -6.2751297e+01  -3.9032625e+01
   7.9554530e+01  -6.5285543e+01  -3.7830861e+01
  -8.0043625e+01  -4.5575883e+01  -3.1683670e+01
  -5.9722478e+01  -4.6756968e+01  -3.1207848e+01
  -4.0666237e+01  -4.7769675e+01  -3.0159677e+01
  -2.0255684e+01  -4.8425139e+01  -2.8852952e+01
  -1.4419534e+00  -4.9232848e+01  -2.6963347e+01
   1.9858533e+01  -5.1499846e+01  -2.6451917e+01
   3.9327469e+01  -5.1814935e+01  -2.4137299e+01
   5.9778160e+01  -5.3605487e+01  -2.1913490e+01
   7.8248866e+01  -5.4895905e+01  -1.9588137e+01
  -8.0511282e+01  -3.2667695e+01  -1.7386945e+01
  -6.1733096e+01  -3.3360220e+01  -1.5907953e+01
  -4.1513093e+01  -3.4380073e+01  -1.3668957e+01
  -2.2457477e+01  -3.6535052e+01  -1.2777040e+01
  -2.1124493e+00  -3.7500747e+01  -1.1771293e+01
   1.9039267e+01  -3.8509356e+01  -1.0214495e+01
   3.8065448e+01  -3.9908170e+01  -8.6797864e+00
   5.7345722e+01  -4.1648593e+01  -5.8864868e+00
   7.7688045e+01  -4.2314577e+01  -3.8277767e+00
  -8.1030698e+01  -1.7199697e+01  -3.8372159e+00
  -6.1146290e+01  -1.8374182e+01  -2.1594677e+00
  -4.1630767e+01  -1.9767845e+01  -1.2231317e+00
  -2.1906084e+01  -2.0932762e+01   4.0222514e-01
  -2.2129579e+00  -2.2651759e+01   1.1846548e+00
   1.7446398e+01  -2.3898737e+01   2.7840159e+00
   3.7855258e+01  -2.6094235e+01   4.5893700e+00
   5.7477777e+01  -2.7065456e+01   8.0261394e+00
   7.7196378e+01  -2.8391252e+01   9.9071773e+00
  -8.0525351e+01   3.0627916e-01   5.3195025e+00
  -6.0669991e+01  -1.6554680e+00   6.7444174e+00
  -4.1629245e+01  -1.9823726e+00   7.6228000e+00
  -2.1397886e+01  -3.1278710e+00   8.7071493e+00
  -2.2395473e+00  -4.2731080e+00   9.7737078e+00
   1.8598810e+01  -6.1199671e+00   1.1517401e+01
   3.7990244e+01  -7.7882178e+00   1.3816297e+01
   5.8165105e+01  -9.4152149e+00   1.6209523e+01
   7.8457721e+01  -1.0763138e+01   1.9037016e+01
  -7.9447980e+01   1.8574910e+01   1.0389262e+01
  -5.9875127e+01   1.7938758e+01   1.2097295e+01
  -3.9688695e+01   1.6744518e+01   1.3229262e+01
  -2.1385591e+01   1.6067869e+01   1.3552117e+01
  -1.3364769e+00   1.4300590e+01   1.3970751e+01
   1.9556365e+01   1.3072077e+01   1.5386635e+01
   3.9450038e+01   1.1881875e+01   1.7630021e+01
   5.8492463e+01   1.0599362e+01   2.0537202e+01
   7.9243240e+01   9.4511949e+00   2.3964867e+01
  -7.8430686e+01   3.9048468e+01   1.3032564e+01
  -5.9556305e+01   3.7707776e+01   1.4026601e+01
  -3.8239130e+01   3.7277161e+01   1.5472401e+01
  -1.9193756e+01   3.5250464e+01   1.5382988e+01
   6.0557262e-01   3.3889379e+01   1.5876572e+01
   2.0334463e+01   3.2677693e+01   1.7189510e+01
   3.9879548e+01   3.2069604e+01   1.9477408e+01
   6.0024331e+01   3.0678502e+01   2.2460363e+01
   8.0394987e+01   2.8541208e+01   2.6056249e+01
  -7.7212849e+01   5.9193188e+01   9.6323727e+00
  -5.7330155e+01   5.7658467e+01   1.1261461e+01
  -3.7543559e+01   5.6110737e+01   1.2788108e+01
  -1.7141373e+01   5.5514824e+01   1.3597177e+01
   2.8366260e+00   5.4820152e+01   1.4379648e+01
   2.1954236e+01   5.3751001e+01   1.5793828e+01
   4.1362793e+01   5.2523523e+01   1.7831074e+01
   6.1475150e+01   5.0448456e+01   1.9007853e+01
   8.2133250e+01   4.8694948e+01   2.2199667e+01
  -7.5734519e+01   7.7051631e+01   4.0120940e+00
  -5.4767598e+01   7.7429110e+01   6.0510778e+00
  -3.5587948e+01   7.5876402e+01   7.5971465e+00
  -1.5492833e+01   7.4267889e+01   7.3038287e+00
   4.5279590e+00   7.3756003e+01   8.7643464e+00
   2.3543602e+01   7.2367759e+01   1.0267846e+01
   4.4018839e+01   7.0660859e+01   1.2883117e+01
   6.3859515e+01   6.8321282e+01   1.3605112e+01
   8.4062304e+01   6.6445276e+01   1.4222379e+01
