  -8.1593502e+01  -7.5129959e+01   1.1938346e+01
  -6.2122000e+01  -7.4709381e+01   1.3445808e+01
  -4.2553895e+01  -7.4873362e+01   1.4038180e+01
  -2.2957344e+01  -7.6029010e+01   1.4680306e+01
  -3.4152413e+00  -7.5708565e+01   1.4649286e+01
   1.7498826e+01  -7.6147550e+01   1.5466232e+01
   3.7745319e+01  -7.6101836e+01   1.5848386e+01
   5.8052603e+01  -7.5528793e+01   1.7543524e+01
   7.7829542e+01  -7.6861185e+01   1.8666876e+01
  -8.1274132e+01  -5.5131173e+01   1.2225202e+01
  -6.0998804e+01  -5.5399255e+01   1.4071701e+01
  -4.1917921e+01  -5.5929500e+01   1.5022123e+01
  -2.1456029e+01  -5.6125290e+01   1.4999724e+01
  -2.5612770e+00  -5.5745569e+01   1.6011456e+01
   1.8767098e+01  -5.7203167e+01   1.7456244e+01
   3.8293752e+01  -5.5847117e+01   1.8625464e+01
   5.8798263e+01  -5.6442766e+01   2.0990300e+01
   7.7246993e+01  -5.6157006e+01   2.2333486e+01
  -8.1017113e+01  -3.5272950e+01   1.0486932e+01
  -6.2246189e+01  -3.4951073e+01   1.2171002e+01
  -4.1890602e+01  -3.4777440e+01   1.2893255e+01
  -2.2740729e+01  -3.5978677e+01   1.3522017e+01
  -2.3605701e+00  -3.6298713e+01   1.4163064e+01
   1.8835946e+01  -3.6079173e+01   1.5385985e+01
   3.7872471e+01  -3.6340985e+01   1.7348059e+01
   5.7233136e+01  -3.6379008e+01   2.0127229e+01
   7.8121571e+01  -3.6006985e+01   2.2786566e+01
  -8.1046697e+01  -1.5054671e+01   6.6995566e+00
  -6.0878752e+01  -1.5069087e+01   8.0741983e+00
  -4.1324038e+01  -1.5670635e+01   9.0364778e+00
  -2.1514455e+01  -1.5629886e+01   9.8369248e+00
  -1.7748854e+00  -1.6372415e+01   1.0925229e+01
   1.7944235e+01  -1.6384337e+01   1.2251626e+01
   3.8392452e+01  -1.7392445e+01   1.4587271e+01
   5.8141228e+01  -1.6455604e+01   1.7215211e+01
   7.7781453e+01  -1.6630645e+01   2.0104883e+01
  -7.9712676e+01   3.0677414e+00  -1.0695247e+00
  -5.9857374e+01   2.6008539e+00   1.3102187e+00
  -4.0837463e+01   3.1739684e+00   2.4690823e+00
  -2.0588090e+01   3.2595216e+00   3.7925047e+00
  -1.4523573e+00   3.3621341e+00   5.6102677e+00
   1.9414064e+01   2.9098992e+00   7.8633681e+00
   3.8896867e+01   2.5728557e+00   9.9615796e+00
   5.9126446e+01   2.3904733e+00   1.2437562e+01
   7.9507465e+01   2.4984013e+00   1.4928414e+01
  -7.8385647e+01   1.9090534e+01  -1.1174730e+01
  -5.8877102e+01   2.0103298e+01  -8.9816392e+00
  -3.8762136e+01   2.0452402e+01  -6.6437292e+00
  -2.0534107e+01   2.1036007e+01  -4.9220769e+00
  -5.6283565e-01   2.0627513e+01  -2.4226877e+00
   2.0290301e+01   2.0775672e+01  -1.5341819e-01
   4.0200284e+01   2.1071898e+01   2.2366461e+00
   5.9371565e+01   2.1268832e+01   4.5024020e+00
   8.0259181e+01   2.1767939e+01   7.0773101e+00
  -7.6918757e+01   3.6024867e+01  -2.2933348e+01
  -5.8463140e+01   3.6122001e+01  -2.0723347e+01
  -3.7343562e+01   3.7770057e+01  -1.7904671e+01
  -1.8327887e+01   3.6967440e+01  -1.5759522e+01
   1.3523946e+00   3.7103563e+01  -1.3156143e+01
   2.0914080e+01   3.7638677e+01  -1.0077956e+01
   4.0449535e+01   3.8556581e+01  -7.8112300e+00
   6.0639437e+01   3.9151629e+01  -4.8685678e+00
   8.1171743e+01   3.8926092e+01  -1.5768234e+00
  -7.6151445e+01   5.2528692e+01  -3.5011806e+01
  -5.6464729e+01   5.1980960e+01  -3.3178530e+01
  -3.6714163e+01   5.1849318e+01  -3.0701980e+01
  -1.6385667e+01   5.2567783e+01  -2.8832501e+01
   3.2743144e+00   5.3617812e+01  -2.5670027e+01
   2.2149808e+01   5.4774842e+01  -2.2352949e+01
   4.1500668e+01   5.5378568e+01  -1.9609066e+01
   6.1528914e+01   5.5538320e+01  -1.6602161e+01
   8.2257281e+01   5.5757478e+01  -1.3391816e+01
  -7.2181229e+01   6.7454589e+01  -4.5696000e+01
  -5.4180490e+01   6.8722116e+01  -4.4972981e+01
  -3.4569228e+01   6.7745175e+01  -4.3514981e+01
  -1.4631732e+01   6.7285579e+01  -4.2035210e+01
   5.1145745e+00   6.8526658e+01  -3.8604416e+01
   2.3927770e+01   6.9578234e+01  -3.5327178e+01
   4.4235682e+01   7.0478390e+01  -3.1356419e+01
   6.4000867e+01   7.0732164e+01  -2.8369723e+01
   8.4040984e+01   7.0320481e+01  -2.5032747e+01
