  -7.9915899e+01  -6.6104066e+01  -2.2096754e+01
  -6.0410090e+01  -6.6827193e+01  -2.2864347e+01
  -4.0844443e+01  -6.7097485e+01  -2.2231162e+01
  -2.1293455e+01  -6.8752610e+01  -2.1341165e+01
  -1.7812091e+00  -6.8093858e+01  -2.0426975e+01
   1.9147951e+01  -6.8440071e+01  -2.0097302e+01
   3.9389897e+01  -6.8273101e+01  -1.9545602e+01
   5.9714315e+01  -6.8461153e+01  -1.7973873e+01
   7.9700652e+01  -6.9508251e+01  -1.7489105e+01
  -8.0504386e+01  -5.2989349e+01  -1.0192005e+01
  -6.0167852e+01  -5.3614565e+01  -9.4142471e+00
  -4.1145276e+01  -5.4861607e+01  -8.0537323e+00
  -2.0735261e+01  -5.5402557e+01  -6.6875305e+00
  -1.8298189e+00  -5.5187936e+01  -5.8403773e+00
   1.9542765e+01  -5.6711190e+01  -5.7778103e+00
   3.9051193e+01  -5.6030476e+01  -3.9193059e+00
   5.9634443e+01  -5.6796290e+01  -2.4613844e+00
   7.8207827e+01  -5.6975270e+01  -6.6227381e-01
  -8.0945901e+01  -3.6931109e+01   1.1514674e+00
  -6.2117439e+01  -3.6975189e+01   2.0312157e+00
  -4.1802708e+01  -3.7182230e+01   3.5044923e+00
  -2.2666919e+01  -3.8649254e+01   3.9792382e+00
  -2.2906194e+00  -3.9133024e+01   4.6400079e+00
   1.8876511e+01  -3.9541814e+01   6.2591144e+00
   3.7976827e+01  -4.0087676e+01   7.3488487e+00
   5.7429455e+01  -4.0607298e+01   9.3201030e+00
   7.8395959e+01  -4.0732767e+01   1.1301805e+01
  -8.1195576e+01  -1.7211358e+01   6.9989493e+00
  -6.1046162e+01  -1.7727979e+01   8.5384705e+00
  -4.1502153e+01  -1.8699945e+01   9.4111933e+00
  -2.1676700e+01  -1.8762479e+01   9.5084170e+00
  -1.9345163e+00  -1.9909475e+01   1.0071394e+01
   1.7777335e+01  -2.0355425e+01   1.1430524e+01
   3.8246603e+01  -2.1866954e+01   1.3254102e+01
   5.7975230e+01  -2.1661410e+01   1.6175900e+01
   7.7631786e+01  -2.2666426e+01   1.8769939e+01
  -8.0337542e+01   2.4779642e+00   8.4667396e+00
  -6.0402180e+01   1.1855513e+00   9.4792634e+00
  -4.1360188e+01   1.2376975e+00   1.0389332e+01
  -2.1069430e+01   1.0524289e+00   1.0605483e+01
  -1.8556217e+00   5.1793865e-01   1.0792374e+01
   1.9073217e+01  -5.6498389e-01   1.2016916e+01
   3.8552966e+01  -1.3827713e+00   1.4008470e+01
   5.8721678e+01  -2.2193168e+00   1.6823237e+01
   7.9034553e+01  -2.8483057e+00   1.9754680e+01
  -7.9262583e+01   2.1110866e+01   4.9645238e+00
  -5.9687400e+01   2.1316620e+01   6.7501704e+00
  -3.9470079e+01   2.0608972e+01   7.7292973e+00
  -2.1168107e+01   2.0737161e+01   8.4955388e+00
  -1.0866482e+00   1.9497093e+01   9.1757945e+00
   1.9849286e+01   1.8951438e+01   1.0364803e+01
   3.9796921e+01   1.8604286e+01   1.2409047e+01
   5.8937856e+01   1.8167610e+01   1.4887841e+01
   7.9898603e+01   1.7761349e+01   1.6923508e+01
  -7.8147710e+01   3.9967322e+01  -3.4247317e+00
  -5.9313470e+01   3.9417956e+01  -1.4253882e+00
  -3.8004988e+01   3.9821896e+01   1.5041741e-01
  -1.8918521e+01   3.8503344e+01   1.0503859e+00
   8.5623644e-01   3.8101626e+01   2.7554400e+00
   2.0581292e+01   3.7764122e+01   4.5524844e+00
   4.0200959e+01   3.7707413e+01   6.1895742e+00
   6.0486919e+01   3.7269003e+01   8.4106352e+00
   8.1157623e+01   3.5684502e+01   1.0045685e+01
  -7.7075482e+01   5.7007164e+01  -1.4709602e+01
  -5.7458794e+01   5.6107528e+01  -1.2767795e+01
  -3.7708321e+01   5.5719246e+01  -1.0317585e+01
  -1.7283013e+01   5.5479278e+01  -1.0227400e+01
   2.6907796e+00   5.5392859e+01  -9.1069551e+00
   2.1752633e+01   5.5003483e+01  -6.8441824e+00
   4.1204123e+01   5.4524344e+01  -4.9053444e+00
   6.1291839e+01   5.4099883e+01  -2.3556051e+00
   8.2121635e+01   5.3446007e+01   3.4287762e-02
  -7.5084699e+01   7.1853759e+01  -2.6037108e+01
  -5.5379788e+01   7.0847100e+01  -2.6110418e+01
  -3.5800185e+01   7.0876032e+01  -2.4031916e+01
  -1.5659394e+01   7.0090570e+01  -2.3564392e+01
   4.3672693e+00   6.9834703e+01  -2.2117133e+01
   2.3367241e+01   6.9483282e+01  -1.9958433e+01
   4.3913561e+01   6.9031339e+01  -1.7382975e+01
   6.3687543e+01   6.9052000e+01  -1.4444179e+01
   8.3743796e+01   6.8477797e+01  -1.1230429e+01
