  -7.7246691e+01  -7.2391793e+01  -1.6398014e+01
  -5.7726122e+01  -7.1728015e+01  -1.6089019e+01
  -3.8250406e+01  -7.2043273e+01  -1.4117819e+01
  -1.8624249e+01  -7.1888358e+01  -1.3786739e+01
   8.1517441e-01  -7.1748349e+01  -1.1765199e+01
   2.1706036e+01  -7.1864965e+01  -1.0417388e+01
   4.1926731e+01  -7.1016002e+01  -9.7308315e+00
   6.1832113e+01  -7.0839301e+01  -6.0572466e+00
   8.1850407e+01  -7.0846131e+01  -6.2871537e+00
  -7.8319139e+01  -5.7313501e+01  -4.9532943e+00
  -5.7991785e+01  -5.6898157e+01  -4.0998321e+00
  -3.8974651e+01  -5.7199789e+01  -2.2231020e+00
  -1.8538891e+01  -5.6776850e+01  -1.2593969e+00
   3.2701182e-01  -5.5940027e+01  -1.1645695e-02
   2.1711001e+01  -5.6908865e+01   9.3593512e-01
   4.1111096e+01  -5.5219553e+01   3.2334841e+00
   6.1644031e+01  -5.5188242e+01   5.4197602e+00
   8.0248246e+01  -5.4245051e+01   6.5301634e+00
  -7.9287507e+01  -3.9215398e+01   3.3507748e+00
  -6.0549346e+01  -3.8779540e+01   5.3060904e+00
  -4.0222138e+01  -3.8037836e+01   6.3813615e+00
  -2.1045449e+01  -3.8677746e+01   7.0146734e+00
  -6.7542548e-01  -3.8354242e+01   7.9211640e+00
   2.0502511e+01  -3.7506223e+01   9.1907695e+00
   3.9581144e+01  -3.7206238e+01   1.0681851e+01
   5.8890880e+01  -3.7075756e+01   1.3792746e+01
   7.9850483e+01  -3.6273184e+01   1.5686979e+01
  -8.0351331e+01  -1.9430527e+01   8.8780804e+00
  -6.0158336e+01  -1.8908273e+01   9.6565992e+00
  -4.0573674e+01  -1.8878491e+01   9.9954518e+00
  -2.0759996e+01  -1.8200401e+01   1.0137779e+01
  -9.7883986e-01  -1.8315448e+01   1.0418884e+01
   1.8748683e+01  -1.7752177e+01   1.1472810e+01
   3.9225116e+01  -1.8295382e+01   1.3713729e+01
   5.8912491e+01  -1.7129212e+01   1.6687816e+01
   7.8530221e+01  -1.7177331e+01   1.9731110e+01
  -8.0378858e+01   3.2585285e-01   8.3833574e+00
  -6.0412896e+01   3.7646449e-02   9.5629681e+00
  -4.1380859e+01   1.0672580e+00   9.9501508e+00
  -2.1096484e+01   1.6503407e+00   9.9434952e+00
  -1.8807865e+00   2.1031682e+00   1.0150763e+01
   1.9072234e+01   2.0866461e+00   1.1438849e+01
   3.8539047e+01   2.1934898e+00   1.3703244e+01
   5.8757064e+01   2.3329648e+00   1.6274621e+01
   7.9044512e+01   2.7056511e+00   1.9418262e+01
  -8.0055913e+01   1.8706937e+01   3.6254672e+00
  -6.0476911e+01   1.9838964e+01   4.9670405e+00
  -4.0246544e+01   2.0243857e+01   5.8433316e+00
  -2.1948159e+01   2.1056129e+01   6.1172292e+00
  -1.8280832e+00   2.0862126e+01   6.7578786e+00
   1.9085058e+01   2.1433228e+01   8.2873227e+00
   3.9048683e+01   2.1955734e+01   1.0128049e+01
   5.8164686e+01   2.2502240e+01   1.2771949e+01
   7.9202342e+01   2.2748532e+01   1.3781065e+01
  -7.9821577e+01   3.6992357e+01  -6.0066148e+00
  -6.0933981e+01   3.7285064e+01  -4.5230917e+00
  -3.9642294e+01   3.8751000e+01  -3.4218122e+00
  -2.0519107e+01   3.8418988e+01  -2.4043389e+00
  -7.0777422e-01   3.8917958e+01  -1.2331321e+00
   1.9042828e+01   3.9283848e+01   2.5042042e-01
   3.8624521e+01   4.0180461e+01   2.0856258e+00
   5.8903424e+01   4.0861597e+01   4.3099590e+00
   7.9639937e+01   4.0221449e+01   5.7414987e+00
  -7.9778989e+01   5.2751562e+01  -1.9064172e+01
  -5.9694542e+01   5.2590006e+01  -1.7746342e+01
  -3.9930087e+01   5.3433670e+01  -1.5534995e+01
  -1.9553921e+01   5.4661850e+01  -1.4785112e+01
   4.1505109e-01   5.5564592e+01  -1.3984812e+01
   1.9511973e+01   5.5836433e+01  -1.2020210e+01
   3.9013369e+01   5.5994235e+01  -1.0599007e+01
   5.9088536e+01   5.6808649e+01  -8.0451743e+00
   8.0015692e+01   5.6694943e+01  -6.6096470e+00
  -7.9015052e+01   6.4302805e+01  -3.3852076e+01
  -5.7956860e+01   6.5948207e+01  -3.3339033e+01
  -3.8856081e+01   6.6138394e+01  -3.1625007e+01
  -1.8771732e+01   6.7158018e+01  -3.0187557e+01
   1.1540604e+00   6.8495212e+01  -2.8089477e+01
   1.9925874e+01   6.9335081e+01  -2.5639255e+01
   4.0582298e+01   6.8998874e+01  -2.4160198e+01
   6.0509299e+01   6.9244232e+01  -2.2578510e+01
   8.0472228e+01   7.1419804e+01  -1.9470534e+01
