  -7.8047347e+01  -7.4725971e+01   1.0669542e+00
  -5.9362604e+01  -7.3950927e+01   3.3667264e+00
  -4.0358893e+01  -7.4135300e+01   5.6831727e+00
  -2.0731683e+01  -7.4620244e+01   6.2400771e+00
  -1.2263935e+00  -7.3570873e+01   6.9033427e+00
   1.9687427e+01  -7.3377387e+01   7.8160247e+00
   3.9875068e+01  -7.2741890e+01   9.2733804e+00
   6.0159155e+01  -7.1259317e+01   1.0668182e+01
   8.0153145e+01  -7.1781359e+01   1.1535893e+01
  -7.9719567e+01  -5.6124635e+01   8.2321448e+00
  -5.9512863e+01  -5.6038368e+01   1.0691474e+01
  -4.0409056e+01  -5.5974584e+01   1.1243796e+01
  -1.9989543e+01  -5.5521726e+01   1.2495303e+01
  -1.0963101e+00  -5.4605462e+01   1.3116311e+01
   2.0270569e+01  -5.5487403e+01   1.4454302e+01
   3.9637553e+01  -5.3819924e+01   1.7030273e+01
   6.0127577e+01  -5.4017290e+01   1.9580208e+01
   7.8725258e+01  -5.3371266e+01   2.0976042e+01
  -8.0465931e+01  -3.6500660e+01   1.1664233e+01
  -6.1637825e+01  -3.5724304e+01   1.2096642e+01
  -4.1368805e+01  -3.5000812e+01   1.3725871e+01
  -2.2196692e+01  -3.5705773e+01   1.4425216e+01
  -1.8243134e+00  -3.5353415e+01   1.5265608e+01
   1.9333399e+01  -3.4579056e+01   1.6874204e+01
   3.8350612e+01  -3.4412094e+01   1.9024857e+01
   5.7687041e+01  -3.4164328e+01   2.1957725e+01
   7.8579748e+01  -3.3512915e+01   2.4528254e+01
  -8.1096475e+01  -1.6053618e+01   9.5090542e+00
  -6.0955288e+01  -1.5414071e+01   1.1108887e+01
  -4.1395264e+01  -1.5565254e+01   1.2137129e+01
  -2.1586969e+01  -1.5062452e+01   1.2800877e+01
  -1.8141678e+00  -1.5241240e+01   1.3425970e+01
   1.7870800e+01  -1.4747739e+01   1.5117618e+01
   3.8318556e+01  -1.5309330e+01   1.7602571e+01
   5.8043740e+01  -1.4081290e+01   2.0287142e+01
   7.7614630e+01  -1.3993977e+01   2.3617593e+01
  -8.0339307e+01   2.6757829e+00   3.2483587e+00
  -6.0619001e+01   2.5486250e+00   5.0880993e+00
  -4.1651636e+01   3.6312788e+00   6.6677679e+00
  -2.1421911e+01   4.2380694e+00   8.1462534e+00
  -2.2486138e+00   4.7935522e+00   9.3981116e+00
   1.8633977e+01   4.7543330e+00   1.1543894e+01
   3.8077354e+01   4.8707337e+00   1.4000973e+01
   5.8272073e+01   5.0598179e+00   1.6746371e+01
   7.8621406e+01   5.4328523e+00   1.9460665e+01
  -7.9563052e+01   1.9395246e+01  -5.7217599e+00
  -5.9947359e+01   2.0292948e+01  -4.8066827e+00
  -3.9826056e+01   2.0871007e+01  -2.5709344e+00
  -2.1607397e+01   2.1835420e+01  -9.2287828e-01
  -1.5990230e+00   2.2033869e+01   1.2887066e+00
   1.9286676e+01   2.2474992e+01   3.1907675e+00
   3.9164672e+01   2.3108661e+01   5.7736579e+00
   5.8287231e+01   2.3739457e+01   8.3505317e+00
   7.9220248e+01   2.4277568e+01   1.0626748e+01
  -7.8435097e+01   3.4894420e+01  -1.9348638e+01
  -5.9574216e+01   3.5464670e+01  -1.7625324e+01
  -3.8385285e+01   3.7085431e+01  -1.5366988e+01
  -1.9347361e+01   3.6564789e+01  -1.3335215e+01
   2.8808236e-01   3.7696819e+01  -1.0637534e+01
   1.9985336e+01   3.8093012e+01  -8.5681540e+00
   3.9515436e+01   3.9228665e+01  -6.3545415e+00
   5.9699276e+01   4.0113969e+01  -3.4434708e+00
   8.0339012e+01   3.9599790e+01  -9.5370404e-01
  -7.7125951e+01   4.8108203e+01  -3.4922214e+01
  -5.7384417e+01   4.8901295e+01  -3.2635110e+01
  -3.7715573e+01   4.8967324e+01  -3.0225148e+01
  -1.7357485e+01   4.9814511e+01  -2.8779662e+01
   2.3908582e+00   5.1751952e+01  -2.6237122e+01
   2.1455912e+01   5.2293373e+01  -2.4033359e+01
   4.0783579e+01   5.3257110e+01  -2.1229493e+01
   6.0736349e+01   5.4171932e+01  -1.7875733e+01
   8.1515565e+01   5.4580916e+01  -1.5033818e+01
  -7.5735313e+01   5.9449856e+01  -4.9593170e+01
  -5.4684783e+01   6.1157532e+01  -4.8977991e+01
  -3.5341469e+01   6.2439899e+01  -4.5532185e+01
  -1.5647251e+01   6.1907344e+01  -4.4427020e+01
   4.3124566e+00   6.2942418e+01  -4.2486418e+01
   2.3206568e+01   6.4066759e+01  -3.9742187e+01
   4.3673672e+01   6.4595282e+01  -3.6610599e+01
   6.3111254e+01   6.6718622e+01  -3.2448973e+01
   8.3312448e+01   6.5528219e+01  -3.0603465e+01
