  -7.8357781e+01  -6.0651673e+01  -3.8774457e+01
  -5.8968554e+01  -6.1459878e+01  -4.1009049e+01
  -3.9406631e+01  -6.2086264e+01  -4.0532266e+01
  -1.9780776e+01  -6.2564659e+01  -3.9924311e+01
  -3.7190532e-01  -6.3428012e+01  -3.7791756e+01
   2.0538313e+01  -6.3600882e+01  -3.6953296e+01
   4.0761040e+01  -6.3817855e+01  -3.5922346e+01
   6.1053854e+01  -6.4322504e+01  -3.4042266e+01
   8.0574909e+01  -6.6302748e+01  -3.0068337e+01
  -7.9330622e+01  -5.0635225e+01  -2.6040147e+01
  -5.8979190e+01  -5.0244625e+01  -2.6527012e+01
  -4.0050881e+01  -5.1898439e+01  -2.4465811e+01
  -1.9606062e+01  -5.1632201e+01  -2.3649495e+01
  -7.8209870e-01  -5.2070659e+01  -2.1740150e+01
   2.0579416e+01  -5.3701270e+01  -2.1368177e+01
   4.0063661e+01  -5.3152987e+01  -1.9232819e+01
   6.0613385e+01  -5.4187989e+01  -1.7495051e+01
   7.9033164e+01  -5.4494131e+01  -1.4518903e+01
  -7.9344605e+01  -3.6020703e+01  -1.2480940e+01
  -6.1304927e+01  -3.6250749e+01  -1.1625363e+01
  -4.1204559e+01  -3.6668379e+01  -9.8914432e+00
  -2.2059769e+01  -3.7992493e+01  -9.3626064e+00
  -1.7289760e+00  -3.8892881e+01  -8.0540177e+00
   1.9447425e+01  -3.9298487e+01  -6.5601923e+00
   3.8455589e+01  -4.0318013e+01  -4.5707599e+00
   5.7926803e+01  -4.0717368e+01  -2.7616367e+00
   7.8705821e+01  -4.1183348e+01   6.3725877e-01
  -8.0501912e+01  -1.8998840e+01  -9.9004123e-01
  -6.0772830e+01  -1.9437187e+01  -1.8123437e-01
  -4.1282315e+01  -2.0700417e+01   1.3015836e+00
  -2.1497727e+01  -2.1206094e+01   2.4747387e+00
  -1.7783694e+00  -2.2481946e+01   3.4263310e+00
   1.7925629e+01  -2.3071130e+01   4.8435416e+00
   3.8369268e+01  -2.4843266e+01   6.7192470e+00
   5.8098329e+01  -2.4833905e+01   9.6453242e+00
   7.7669116e+01  -2.5897322e+01   1.2803291e+01
  -8.0339722e+01  -2.7346584e-01   5.3261382e+00
  -6.0423584e+01  -1.7120568e+00   6.5060089e+00
  -4.1417194e+01  -1.8869303e+00   7.9739912e+00
  -2.1162753e+01  -2.5200263e+00   9.0476309e+00
  -1.9543858e+00  -2.9963998e+00   9.5978586e+00
   1.8962605e+01  -4.2061549e+00   1.0903422e+01
   3.8424006e+01  -5.3085581e+00   1.2936712e+01
   5.8543712e+01  -6.4353246e+00   1.5990803e+01
   7.8749927e+01  -7.2171421e+00   1.9554444e+01
  -7.9664984e+01   1.8224133e+01   9.5675574e+00
  -6.0054888e+01   1.8125324e+01   1.0928815e+01
  -3.9824890e+01   1.7365731e+01   1.1536881e+01
  -2.1511981e+01   1.7071232e+01   1.1877989e+01
  -1.4204241e+00   1.5871082e+01   1.2271051e+01
   1.9508439e+01   1.5211655e+01   1.3525108e+01
   3.9426851e+01   1.4555043e+01   1.5768618e+01
   5.8469179e+01   1.3841497e+01   1.8865561e+01
   7.9246712e+01   1.3416592e+01   2.2297109e+01
  -7.8903039e+01   3.8878522e+01   9.5032037e+00
  -6.0009703e+01   3.7988574e+01   1.0633526e+01
  -3.8665234e+01   3.8038301e+01   1.1686579e+01
  -1.9590356e+01   3.6368108e+01   1.2135152e+01
   2.3568166e-01   3.5572143e+01   1.2770980e+01
   1.9965954e+01   3.4890350e+01   1.4405795e+01
   3.9526356e+01   3.4812624e+01   1.6641685e+01
   5.9745474e+01   3.4025027e+01   1.9327286e+01
   8.0331972e+01   3.2620856e+01   2.1913104e+01
  -7.8070781e+01   5.8594400e+01   4.0768152e+00
  -5.8097742e+01   5.7493442e+01   5.4821836e+00
  -3.8615541e+01   5.6538106e+01   7.1979751e+00
  -1.8210365e+01   5.6369601e+01   8.1249667e+00
   1.7716850e+00   5.6293898e+01   9.0878903e+00
   2.0907037e+01   5.5388419e+01   1.0370228e+01
   4.0341189e+01   5.4565516e+01   1.2366660e+01
   6.0435764e+01   5.3590119e+01   1.4702100e+01
   8.1328805e+01   5.2352665e+01   1.6105350e+01
  -7.7880136e+01   7.5466261e+01  -2.4089475e+00
  -5.6772209e+01   7.6301967e+01  -2.8289792e+00
  -3.7171245e+01   7.5138137e+01  -1.3696880e+00
  -1.7076631e+01   7.4509550e+01   1.4635924e-01
   2.9666038e+00   7.3844103e+01   1.1726047e+00
   2.1980997e+01   7.3161570e+01   3.1141040e+00
   4.2542225e+01   7.2132639e+01   5.3869204e+00
   6.2468934e+01   7.0848590e+01   6.3485761e+00
   8.2523673e+01   6.9178999e+01   9.1647999e+00
