  -8.1293246e+01  -7.7291063e+01  -8.2889129e+00
  -6.1991208e+01  -7.7507974e+01  -5.2934228e+00
  -4.2642029e+01  -7.8140642e+01  -2.3783694e+00
  -2.3253316e+01  -7.9654582e+01   3.7089306e-01
  -3.7594036e+00  -7.9645743e+01   1.7797005e+00
   1.7119645e+01  -8.0481716e+01   3.0543648e+00
   3.7361532e+01  -8.1039090e+01   3.2091667e+00
   5.7728168e+01  -8.1381181e+01   2.3901378e+00
   7.7648182e+01  -8.3375497e+01   2.4181706e+00
  -8.0622672e+01  -5.7506591e+01  -7.7902827e+00
  -6.0447636e+01  -5.8273245e+01  -5.1538931e+00
  -4.1549113e+01  -5.9136970e+01  -2.4401599e+00
  -2.1243525e+01  -5.9650717e+01  -1.1715551e-01
  -2.3615746e+00  -5.9615766e+01   1.1674433e+00
   1.8968268e+01  -6.1515598e+01   1.9022976e+00
   3.8551281e+01  -6.0638799e+01   2.3850107e+00
   5.9151982e+01  -6.2026094e+01   2.6471896e+00
   7.7807291e+01  -6.2349338e+01   2.9853839e+00
  -8.0103075e+01  -3.7762806e+01  -7.7626002e+00
  -6.1410166e+01  -3.7722454e+01  -5.3416843e+00
  -4.1225300e+01  -3.7881783e+01  -2.6739425e+00
  -2.2177325e+01  -3.9452064e+01  -1.0458549e+00
  -1.8238073e+00  -4.0120963e+01   2.7054039e-02
   1.9392259e+01  -4.0320708e+01   8.4841381e-01
   3.8498973e+01  -4.1100459e+01   1.6440553e+00
   5.8037603e+01  -4.1924280e+01   1.9959476e+00
   7.9087015e+01  -4.2219461e+01   2.6061080e+00
  -7.9924339e+01  -1.7210404e+01  -8.0370298e+00
  -5.9944800e+01  -1.7433000e+01  -4.9703878e+00
  -4.0501659e+01  -1.8395215e+01  -2.7994154e+00
  -2.0710306e+01  -1.8798428e+01  -1.7032174e+00
  -9.8458798e-01  -1.9956593e+01  -7.3311601e-01
   1.8758756e+01  -2.0383935e+01   5.4876143e-02
   3.9266943e+01  -2.1963509e+01   1.2878792e+00
   5.9190990e+01  -2.1802636e+01   2.1847420e+00
   7.9022082e+01  -2.2655727e+01   2.5301531e+00
  -7.9071836e+01   2.5274855e+00  -7.5380441e+00
  -5.9256657e+01   1.5023310e+00  -5.0038900e+00
  -4.0309448e+01   1.5657345e+00  -2.8996851e+00
  -2.0056215e+01   1.0452927e+00  -1.7457404e+00
  -8.5647713e-01   4.8143205e-01  -1.0087469e+00
   2.0089426e+01  -5.8777116e-01  -1.0627641e-01
   3.9626652e+01  -1.4666667e+00   1.1665290e+00
   5.9964531e+01  -2.3508421e+00   2.1607840e+00
   8.0476361e+01  -2.8216098e+00   2.9639864e+00
  -7.8216878e+01   2.1497693e+01  -7.6176215e+00
  -5.8709994e+01   2.1821715e+01  -5.2103086e+00
  -3.8628334e+01   2.1136512e+01  -2.6692506e+00
  -2.0345065e+01   2.0840173e+01  -1.5738174e+00
  -2.8090956e-01   1.9531372e+01  -5.8275251e-01
   2.0680339e+01   1.9004453e+01   2.8173639e-02
   4.0676822e+01   1.8592525e+01   1.5041812e+00
   5.9960167e+01   1.8128350e+01   2.3089281e+00
   8.1009252e+01   1.7992442e+01   3.0701384e+00
  -7.7752529e+01   4.2159360e+01  -7.3561089e+00
  -5.8932437e+01   4.1685965e+01  -5.2095226e+00
  -3.7761100e+01   4.1820848e+01  -2.3107723e+00
  -1.8736420e+01   4.0153927e+01  -8.5315260e-01
   1.0755580e+00   3.9252112e+01   3.1073887e-02
   2.0855268e+01   3.8685332e+01   9.6002420e-01
   4.0510324e+01   3.8860186e+01   2.0837594e+00
   6.0898339e+01   3.8326629e+01   2.9142012e+00
   8.1660001e+01   3.7218185e+01   3.3464065e+00
  -7.7920829e+01   6.2561916e+01  -6.3948280e+00
  -5.7880578e+01   6.1906957e+01  -4.4114518e+00
  -3.8187710e+01   6.0843218e+01  -1.7105500e+00
  -1.7816204e+01   6.0569929e+01  -2.3204863e-01
   2.1498257e+00   6.0305250e+01   9.9387153e-01
   2.1336817e+01   5.9853832e+01   1.5245136e+00
   4.0857437e+01   5.9424917e+01   2.5783612e+00
   6.1088406e+01   5.8499454e+01   2.7998230e+00
   8.2017274e+01   5.7796716e+01   4.0278983e+00
  -7.7728347e+01   8.1338186e+01  -6.7286726e+00
  -5.6781759e+01   8.2482295e+01  -4.2085816e+00
  -3.7346587e+01   8.1350400e+01  -1.2632903e+00
  -1.7255535e+01   8.0312262e+01   6.2883234e-02
   2.7783190e+00   8.0113960e+01   1.4166334e+00
   2.1881430e+01   7.9599729e+01   2.1841646e+00
   4.2543077e+01   7.8664097e+01   3.2839105e+00
   6.2451467e+01   7.7484656e+01   1.9010736e+00
   8.2373255e+01   7.7337214e+01   3.3388521e+00
