  -8.1118374e+01  -7.3621823e+01   1.7507698e+01
  -6.1669750e+01  -7.3070250e+01   1.9249972e+01
  -4.2116283e+01  -7.2989507e+01   2.0221524e+01
  -2.2499938e+01  -7.3823280e+01   1.9695684e+01
  -2.9858459e+00  -7.3371606e+01   2.0692484e+01
   1.7946943e+01  -7.3410114e+01   2.0966621e+01
   3.8153837e+01  -7.2906760e+01   2.2190012e+01
   5.8407898e+01  -7.1852930e+01   2.4251598e+01
   7.8414162e+01  -7.2484120e+01   2.3882900e+01
  -8.1071624e+01  -5.3626495e+01   1.8082669e+01
  -6.0810164e+01  -5.3754696e+01   2.0089449e+01
  -4.1700483e+01  -5.3959023e+01   2.0296527e+01
  -2.1239340e+01  -5.3983732e+01   2.0558983e+01
  -2.3314862e+00  -5.3296701e+01   2.1006764e+01
   1.9016545e+01  -5.4408578e+01   2.2468572e+01
   3.8452672e+01  -5.2566076e+01   2.4295687e+01
   5.8884814e+01  -5.2687199e+01   2.7278147e+01
   7.7420597e+01  -5.2205996e+01   2.9383526e+01
  -8.0917413e+01  -3.4120439e+01   1.4467075e+01
  -6.2211610e+01  -3.3509304e+01   1.6704656e+01
  -4.1848506e+01  -3.3021831e+01   1.6614875e+01
  -2.2690472e+01  -3.4062208e+01   1.7280695e+01
  -2.3094569e+00  -3.3998735e+01   1.7969485e+01
   1.8871817e+01  -3.3417079e+01   1.9330122e+01
   3.7873037e+01  -3.3207042e+01   2.1614221e+01
   5.7170254e+01  -3.2773805e+01   2.4774964e+01
   7.8028972e+01  -3.2119461e+01   2.7607440e+01
  -8.0950036e+01  -1.5309488e+01   6.8611667e+00
  -6.0930741e+01  -1.4506933e+01   9.5480966e+00
  -4.1389826e+01  -1.4385005e+01   1.0894381e+01
  -2.1606768e+01  -1.4022379e+01   1.2143793e+01
  -1.8685818e+00  -1.4320105e+01   1.3448302e+01
   1.7832085e+01  -1.3961097e+01   1.4983897e+01
   3.8274961e+01  -1.4499732e+01   1.7513670e+01
   5.7994132e+01  -1.3163763e+01   2.0190864e+01
   7.7628348e+01  -1.3080080e+01   2.3125124e+01
  -7.9849332e+01   1.8037404e+00  -2.9615583e+00
  -6.0111195e+01   1.8979669e+00   1.0198414e-01
  -4.1144339e+01   3.2224836e+00   1.4921156e+00
  -2.1041978e+01   4.1270444e+00   4.1137014e+00
  -1.9428698e+00   4.7852542e+00   6.1829747e+00
   1.8894545e+01   4.8390540e+00   8.7300784e+00
   3.8336057e+01   5.0037921e+00   1.1199125e+01
   5.8528367e+01   5.1967929e+00   1.3742934e+01
   7.8783746e+01   5.7224930e+00   1.6735784e+01
  -7.7900610e+01   1.6060697e+01  -1.5352996e+01
  -5.9024144e+01   1.7669622e+01  -1.2676593e+01
  -3.8904356e+01   1.8586126e+01  -1.0542650e+01
  -2.0800137e+01   1.9773368e+01  -8.0141258e+00
  -9.6405816e-01   2.0443902e+01  -4.6457657e+00
   1.9780559e+01   2.1417973e+01  -1.6899462e+00
   3.9564443e+01   2.2505111e+01   1.4122558e+00
   5.8652600e+01   2.3310374e+01   4.1879192e+00
   7.9489700e+01   2.4186642e+01   7.1390736e+00
  -7.6949560e+01   3.1712031e+01  -2.8818498e+01
  -5.8281289e+01   3.2144028e+01  -2.6262529e+01
  -3.7114209e+01   3.3868569e+01  -2.4397780e+01
  -1.8251714e+01   3.3882746e+01  -2.1073956e+01
   1.2575226e+00   3.5187081e+01  -1.7639134e+01
   2.0717129e+01   3.6601838e+01  -1.4212287e+01
   4.0050974e+01   3.8512773e+01  -1.1023972e+01
   6.0164714e+01   3.9548972e+01  -7.7059499e+00
   8.0605721e+01   3.9904993e+01  -3.8979960e+00
  -7.5959280e+01   4.5523607e+01  -4.3888795e+01
  -5.6051533e+01   4.6055499e+01  -4.0827245e+01
  -3.6255996e+01   4.6338948e+01  -3.8755564e+01
  -1.6112519e+01   4.7939941e+01  -3.5766293e+01
   3.4797388e+00   5.0134227e+01  -3.2368670e+01
   2.2406318e+01   5.1257235e+01  -2.9343862e+01
   4.1599509e+01   5.2661211e+01  -2.5879846e+01
   6.1282183e+01   5.4318473e+01  -2.1402853e+01
   8.1928394e+01   5.5059533e+01  -1.7769073e+01
  -7.4633203e+01   5.8194103e+01  -5.6852698e+01
  -5.3744552e+01   6.0460084e+01  -5.4628066e+01
  -3.4102241e+01   6.0684274e+01  -5.3282261e+01
  -1.4083894e+01   6.0641766e+01  -5.0884140e+01
   5.6397309e+00   6.2575994e+01  -4.7649230e+01
   2.4374794e+01   6.4189576e+01  -4.4159791e+01
   4.4392086e+01   6.6304864e+01  -3.9279006e+01
   6.3546287e+01   6.8767971e+01  -3.4112091e+01
   8.3475615e+01   6.9966993e+01  -3.0331165e+01
