  -7.5588678e+01  -6.9614959e+01  -3.0978653e+01
  -5.7311379e+01  -6.9457702e+01  -2.8352163e+01
  -3.7843208e+01  -6.9726509e+01  -2.6301168e+01
  -1.8282097e+01  -7.0672257e+01  -2.4804104e+01
   1.1725164e+00  -6.9631753e+01  -2.3244372e+01
   2.1979568e+01  -7.0274850e+01  -2.1028229e+01
   4.2067315e+01  -7.0291300e+01  -1.9150197e+01
   6.2155908e+01  -7.0388914e+01  -1.5682259e+01
   8.1707328e+01  -7.1497002e+01  -1.4310055e+01
  -7.7195536e+01  -5.5309646e+01  -1.7089016e+01
  -5.7586661e+01  -5.5842210e+01  -1.4601644e+01
  -3.8545937e+01  -5.6145534e+01  -1.2981967e+01
  -1.8169819e+01  -5.5944269e+01  -1.1110829e+01
   6.0532996e-01  -5.5748525e+01  -8.7370285e+00
   2.1981372e+01  -5.6697567e+01  -7.6075627e+00
   4.1364041e+01  -5.5737024e+01  -4.7994107e+00
   6.1883000e+01  -5.6128449e+01  -2.5187721e+00
   8.0434758e+01  -5.5626099e+01  -5.6445922e-01
  -7.8743753e+01  -3.9588013e+01  -4.9288384e+00
  -6.0392249e+01  -3.8905635e+01  -3.6553226e+00
  -4.0143992e+01  -3.8509041e+01  -1.4752935e+00
  -2.1002985e+01  -3.9427513e+01  -3.2020841e-01
  -7.0642303e-01  -3.9588615e+01   1.6515511e+00
   2.0438757e+01  -3.9145430e+01   3.5279787e+00
   3.9475200e+01  -3.9228857e+01   5.5064676e+00
   5.8909410e+01  -3.9029105e+01   7.7046851e+00
   7.9803789e+01  -3.8649177e+01   1.0315774e+01
  -8.0448238e+01  -2.0538930e+01   2.6442119e+00
  -6.0280278e+01  -2.0089189e+01   3.9430493e+00
  -4.0739397e+01  -2.0411146e+01   5.2564360e+00
  -2.0966768e+01  -2.0127892e+01   6.6794054e+00
  -1.2225472e+00  -2.0565722e+01   7.8457816e+00
   1.8475680e+01  -2.0302753e+01   9.4313033e+00
   3.8924697e+01  -2.1152688e+01   1.1822206e+01
   5.8593723e+01  -2.0242872e+01   1.5000182e+01
   7.8353897e+01  -2.0287668e+01   1.6911415e+01
  -8.0436818e+01  -1.0662246e+00   6.0166987e+00
  -6.0448438e+01  -1.3472316e+00   6.7237278e+00
  -4.1440325e+01  -6.5125286e-01   8.0026758e+00
  -2.1162162e+01  -3.7972079e-01   8.7225582e+00
  -1.9524323e+00  -1.9683418e-01   9.3888164e+00
   1.8992014e+01  -5.1347292e-01   1.0773889e+01
   3.8456315e+01  -6.9479608e-01   1.3055074e+01
   5.8574789e+01  -8.2018989e-01   1.6315583e+01
   7.8844513e+01  -5.8205555e-01   1.9584143e+01
  -8.0249469e+01   1.7915751e+01   5.5111409e+00
  -6.0636468e+01   1.8975317e+01   6.3024402e+00
  -4.0405853e+01   1.8951712e+01   7.2622548e+00
  -2.2103653e+01   1.9378699e+01   7.9048100e+00
  -2.0098454e+00   1.8862858e+01   9.0175990e+00
   1.8917782e+01   1.9085056e+01   1.0435304e+01
   3.8822284e+01   1.9390514e+01   1.2869454e+01
   5.7927556e+01   1.9637928e+01   1.5633115e+01
   7.8760944e+01   2.0219353e+01   1.8681694e+01
  -7.9499892e+01   3.7937675e+01   4.3677740e-01
  -6.1004462e+01   3.8130454e+01   1.0504651e+00
  -3.9757654e+01   3.9218548e+01   3.0720844e+00
  -2.0647508e+01   3.8316155e+01   3.9829965e+00
  -8.3385716e-01   3.8235403e+01   5.2168180e+00
   1.8880161e+01   3.8511379e+01   7.1409840e+00
   3.8436591e+01   3.9335501e+01   9.2579298e+00
   5.8716567e+01   3.9439593e+01   1.1572504e+01
   7.9427137e+01   3.8675113e+01   1.3290023e+01
  -7.9570903e+01   5.5533373e+01  -1.0015043e+01
  -5.9614173e+01   5.5796288e+01  -8.7789396e+00
  -4.0067399e+01   5.6047584e+01  -5.8206329e+00
  -1.9656007e+01   5.6554039e+01  -5.2062466e+00
   3.2109536e-01   5.7033458e+01  -4.2571276e+00
   1.9440746e+01   5.6944537e+01  -2.5086871e+00
   3.8877347e+01   5.7062241e+01  -3.7470869e-01
   5.9021390e+01   5.7045111e+01   1.7264485e+00
   7.9903875e+01   5.6895687e+01   3.7061101e+00
  -7.8820959e+01   7.1075894e+01  -2.0530013e+01
  -5.8323637e+01   7.2867565e+01  -2.0241426e+01
  -3.8713146e+01   7.1946469e+01  -1.8737423e+01
  -1.8606007e+01   7.2264814e+01  -1.7292205e+01
   1.3024382e+00   7.3432702e+01  -1.4943364e+01
   2.0293797e+01   7.3543101e+01  -1.2685380e+01
   4.0843421e+01   7.2446771e+01  -1.1805983e+01
   6.0762228e+01   7.2240085e+01  -1.0119069e+01
   8.0060967e+01   7.2576120e+01  -7.9785751e+00
