  -7.6613682e+01  -7.0365751e+01  -2.8374068e+01
  -5.7237452e+01  -6.9879929e+01  -2.5942111e+01
  -3.7782593e+01  -6.9860548e+01  -2.3752007e+01
  -1.8340131e+01  -7.0701841e+01  -2.2636989e+01
   1.1036588e+00  -7.0185546e+01  -2.0721293e+01
   2.1941717e+01  -7.0735673e+01  -1.8789717e+01
   4.2131920e+01  -7.0449945e+01  -1.7259140e+01
   6.2088258e+01  -7.0492767e+01  -1.4098455e+01
   8.1698112e+01  -7.0850887e+01  -1.3349720e+01
  -7.7741894e+01  -5.5861785e+01  -1.4644243e+01
  -5.7516878e+01  -5.6144000e+01  -1.2311981e+01
  -3.8543631e+01  -5.6648299e+01  -1.0070080e+01
  -1.8126679e+01  -5.6147761e+01  -8.7951762e+00
   7.1693787e-01  -5.5449828e+01  -7.1794832e+00
   2.2094931e+01  -5.6446356e+01  -6.1307195e+00
   4.1475330e+01  -5.5522389e+01  -3.2947731e+00
   6.2039585e+01  -5.5777071e+01  -1.4430753e+00
   8.0553022e+01  -5.5392091e+01   8.6860547e-01
  -7.9089923e+01  -3.9682778e+01  -3.0744903e+00
  -6.0368234e+01  -3.9284951e+01  -9.2335244e-01
  -4.0070270e+01  -3.8549370e+01   6.1069456e-01
  -2.0911255e+01  -3.9322726e+01   1.5540980e+00
  -5.6962296e-01  -3.9293867e+01   2.9968072e+00
   2.0574256e+01  -3.8825586e+01   4.8817738e+00
   3.9604797e+01  -3.8951944e+01   6.9140427e+00
   5.9061047e+01  -3.8755619e+01   8.9081259e+00
   7.9957401e+01  -3.8245113e+01   1.1480857e+01
  -8.0387412e+01  -2.0598429e+01   4.4904342e+00
  -6.0211978e+01  -2.0016816e+01   5.6082339e+00
  -4.0665027e+01  -2.0243982e+01   6.8491046e+00
  -2.0865641e+01  -1.9807191e+01   7.7740172e+00
  -1.0985762e+00  -2.0114134e+01   8.5192079e+00
   1.8602834e+01  -1.9737489e+01   1.0040974e+01
   3.9099040e+01  -2.0497150e+01   1.2023279e+01
   5.8811367e+01  -1.9511572e+01   1.4895682e+01
   7.8410245e+01  -1.9877481e+01   1.8037234e+01
  -8.0421225e+01  -1.0163473e+00   7.1552032e+00
  -6.0442009e+01  -1.2352396e+00   8.1024078e+00
  -4.1403455e+01  -3.6926330e-01   8.5628184e+00
  -2.1124059e+01  -5.8259255e-03   9.2030285e+00
  -1.9090973e+00   2.7903620e-01   9.6447952e+00
   1.9039731e+01   7.6749674e-02   1.0984269e+01
   3.8523166e+01  -3.3226959e-02   1.3100719e+01
   5.8664834e+01  -8.9817819e-02   1.6216747e+01
   7.8990187e+01  -2.3805207e-02   1.9128376e+01
  -8.0163352e+01   1.7873748e+01   5.2306562e+00
  -6.0585581e+01   1.9033903e+01   6.5661661e+00
  -4.0341806e+01   1.9196600e+01   7.1683668e+00
  -2.2036822e+01   1.9709628e+01   7.6480277e+00
  -1.9282827e+00   1.9308909e+01   8.5149667e+00
   1.9008577e+01   1.9640369e+01   9.7651197e+00
   3.8913791e+01   2.0031414e+01   1.2181130e+01
   5.8046953e+01   2.0327213e+01   1.4739468e+01
   7.8981935e+01   2.0691531e+01   1.7032006e+01
  -7.9896238e+01   3.7760287e+01  -3.9452715e-01
  -6.1027093e+01   3.8178432e+01   1.2812798e+00
  -3.9684643e+01   3.9168935e+01   1.7465325e+00
  -2.0586955e+01   3.8491222e+01   3.0352398e+00
  -7.3950173e-01   3.8391148e+01   3.4573638e+00
   1.9010072e+01   3.8733401e+01   4.9601244e+00
   3.8562942e+01   3.9577568e+01   7.1019172e+00
   5.8867021e+01   3.9762643e+01   9.1889219e+00
   7.9567918e+01   3.8950341e+01   1.0998643e+01
  -7.9911127e+01   5.4978707e+01  -1.1457075e+01
  -5.9856985e+01   5.5277956e+01  -9.5293131e+00
  -3.9970413e+01   5.5095713e+01  -8.6769472e+00
  -1.9611677e+01   5.6085422e+01  -7.3348434e+00
   3.2121450e-01   5.7200786e+01  -6.0498989e+00
   1.9451833e+01   5.7221341e+01  -4.4235485e+00
   3.8936223e+01   5.7267719e+01  -2.7786962e+00
   5.9108936e+01   5.6981476e+01  -9.9618544e-01
   7.9816518e+01   5.7492555e+01   2.0436140e+00
  -7.8793947e+01   6.9376859e+01  -2.3462996e+01
  -5.8468535e+01   7.1125179e+01  -2.2626292e+01
  -3.8952201e+01   7.1644465e+01  -2.0071902e+01
  -1.8806323e+01   7.1890073e+01  -1.9316736e+01
   1.2293157e+00   7.2551707e+01  -1.8149391e+01
   2.0301801e+01   7.2304849e+01  -1.6748762e+01
   4.0905949e+01   7.2256561e+01  -1.4638011e+01
   6.0829339e+01   7.1785958e+01  -1.3061830e+01
   8.1003364e+01   7.2006887e+01  -1.0638794e+01
