  -7.9061786e+01  -6.3492274e+01  -3.2726915e+01
  -6.0347101e+01  -6.4005225e+01  -3.0038964e+01
  -4.0785572e+01  -6.4593590e+01  -2.9501428e+01
  -2.1183951e+01  -6.5586850e+01  -2.8751401e+01
  -1.6833466e+00  -6.5566519e+01  -2.7438604e+01
   1.9250665e+01  -6.5633437e+01  -2.7293782e+01
   3.9479277e+01  -6.5929414e+01  -2.6408203e+01
   5.9511917e+01  -6.6854990e+01  -2.4681045e+01
   7.8623375e+01  -6.7782878e+01  -2.3543344e+01
  -8.0535277e+01  -5.1594048e+01  -1.6714201e+01
  -6.0225475e+01  -5.2460971e+01  -1.5560611e+01
  -4.1225334e+01  -5.3691431e+01  -1.3903756e+01
  -2.0823456e+01  -5.4535588e+01  -1.2570104e+01
  -1.9299044e+00  -5.4671604e+01  -1.1477098e+01
   1.9463407e+01  -5.5865249e+01  -1.1591166e+01
   3.9006828e+01  -5.5386653e+01  -1.0067406e+01
   5.9603139e+01  -5.5875404e+01  -8.6762623e+00
   7.8069434e+01  -5.6184638e+01  -6.0042350e+00
  -8.0405249e+01  -3.6840774e+01  -3.3406968e+00
  -6.1945751e+01  -3.6991841e+01  -2.1053743e+00
  -4.1651652e+01  -3.7290643e+01  -3.8432913e-01
  -2.2508411e+01  -3.8728885e+01  -2.3021497e-01
  -2.1664642e+00  -3.9702103e+01   8.2915744e-01
   1.9050777e+01  -4.0054792e+01   1.5641960e+00
   3.8102631e+01  -4.0990506e+01   3.1322836e+00
   5.7554961e+01  -4.1360941e+01   5.1398176e+00
   7.8019092e+01  -4.2349522e+01   8.6784255e+00
  -8.1125809e+01  -1.7703308e+01   4.1667741e+00
  -6.1032641e+01  -1.8461104e+01   6.2447819e+00
  -4.1502260e+01  -1.9597640e+01   7.2180224e+00
  -2.1685234e+01  -2.0022366e+01   7.6266735e+00
  -1.9618320e+00  -2.1431375e+01   8.2499693e+00
   1.7763489e+01  -2.1964969e+01   9.3590989e+00
   3.8229359e+01  -2.3583798e+01   1.1127904e+01
   5.7916098e+01  -2.3496563e+01   1.4325179e+01
   7.7529920e+01  -2.4717177e+01   1.7140741e+01
  -8.0343505e+01   1.5120758e+00   8.7183752e+00
  -6.0421084e+01   1.2902455e-01   9.8578892e+00
  -4.1366272e+01   1.0186360e-01   1.0442549e+01
  -2.1084653e+01  -5.6965377e-01   1.0472087e+01
  -1.8719350e+00  -1.1358717e+00   1.0676842e+01
   1.9046577e+01  -2.3373204e+00   1.1965595e+01
   3.8488752e+01  -3.3212283e+00   1.4230429e+01
   5.8596902e+01  -4.2878599e+00   1.7412809e+01
   7.8916430e+01  -5.1180060e+00   2.0246455e+01
  -7.9331890e+01   2.0405903e+01   7.1040615e+00
  -5.9776822e+01   2.0432766e+01   9.1083552e+00
  -3.9540318e+01   1.9627307e+01   9.2947085e+00
  -2.1232147e+01   1.9126457e+01   9.6493401e+00
  -1.1522299e+00   1.7912146e+01   1.0416063e+01
   1.9777694e+01   1.7248089e+01   1.1649818e+01
   3.9704743e+01   1.6727867e+01   1.3852019e+01
   5.8829964e+01   1.6166716e+01   1.6425245e+01
   7.9691054e+01   1.5666890e+01   1.9293525e+01
  -7.8238928e+01   4.0246850e+01   1.4180489e+00
  -5.9411368e+01   3.9456728e+01   3.3993043e+00
  -3.8080481e+01   3.9755783e+01   4.6648397e+00
  -1.9042595e+01   3.8015425e+01   5.8360841e+00
   7.5197006e-01   3.7329848e+01   7.1832189e+00
   2.0466991e+01   3.6765024e+01   9.0325529e+00
   4.0104016e+01   3.6712465e+01   1.0446441e+01
   6.0402437e+01   3.5939347e+01   1.2451907e+01
   8.1074344e+01   3.3998117e+01   1.3620640e+01
  -7.7509088e+01   5.8698787e+01  -6.9209180e+00
  -5.7430465e+01   5.7135722e+01  -6.3043566e+00
  -3.7653832e+01   5.6652457e+01  -4.0937669e+00
  -1.7257625e+01   5.6360954e+01  -3.0127087e+00
   2.7165031e+00   5.6276778e+01  -1.8980830e+00
   2.1864597e+01   5.5449765e+01  -7.6118047e-01
   4.1311291e+01   5.4784971e+01   1.1709992e+00
   6.1442682e+01   5.3821007e+01   3.1698749e+00
   8.2333724e+01   5.2346962e+01   4.3577114e+00
  -7.6767481e+01   7.2976318e+01  -1.9098709e+01
  -5.5675541e+01   7.3856185e+01  -1.8218191e+01
  -3.6121548e+01   7.3325526e+01  -1.5972861e+01
  -1.6102668e+01   7.2147832e+01  -1.4989423e+01
   3.9478763e+00   7.1365439e+01  -1.4220801e+01
   2.2984330e+01   7.0201954e+01  -1.2791766e+01
   4.3457165e+01   7.0030576e+01  -9.6577299e+00
   6.3305823e+01   6.7749466e+01  -8.9688128e+00
   8.3194083e+01   6.7874799e+01  -4.8031686e+00
