  -7.6768205e+01  -6.5638429e+01  -3.5174289e+01
  -5.7248877e+01  -6.4896676e+01  -3.4989018e+01
  -3.7687475e+01  -6.5593193e+01  -3.4595398e+01
  -1.8066745e+01  -6.6343426e+01  -3.4108765e+01
   1.4147404e+00  -6.5606724e+01  -3.2720813e+01
   2.2313658e+01  -6.5758072e+01  -3.1508113e+01
   4.2537332e+01  -6.4798741e+01  -3.1119135e+01
   6.2529076e+01  -6.5156344e+01  -2.9012754e+01
   8.2443776e+01  -6.6383044e+01  -2.7374163e+01
  -7.7749620e+01  -5.4135565e+01  -2.2815786e+01
  -5.7686513e+01  -5.3211371e+01  -2.2497409e+01
  -3.8698055e+01  -5.4006191e+01  -2.0479667e+01
  -1.8276941e+01  -5.3857882e+01  -1.9181984e+01
   5.8373610e-01  -5.3196296e+01  -1.7761910e+01
   2.1938172e+01  -5.4814133e+01  -1.7067472e+01
   4.1414333e+01  -5.3417247e+01  -1.5271907e+01
   6.1944177e+01  -5.4006747e+01  -1.3136448e+01
   8.0418300e+01  -5.3987958e+01  -1.0500945e+01
  -7.9187317e+01  -3.8316759e+01  -1.0768585e+01
  -6.0497277e+01  -3.8552887e+01  -8.3367230e+00
  -4.0194587e+01  -3.8233797e+01  -6.7240635e+00
  -2.1024250e+01  -3.9030284e+01  -6.0761659e+00
  -6.4425889e-01  -3.9093615e+01  -5.3577155e+00
   2.0501636e+01  -3.9288904e+01  -3.4474752e+00
   3.9528683e+01  -3.9738792e+01  -1.4284023e+00
   5.9005138e+01  -3.9303978e+01   3.1492849e-01
   7.9779819e+01  -3.9719463e+01   3.7467163e+00
  -8.0328521e+01  -2.0559436e+01  -4.4874784e-01
  -6.0214638e+01  -2.0776651e+01   1.5563353e+00
  -4.0710468e+01  -2.1459970e+01   3.1965909e+00
  -2.0898702e+01  -2.1252772e+01   3.9127914e+00
  -1.1304482e+00  -2.1863249e+01   4.3922035e+00
   1.8551132e+01  -2.2015991e+01   6.1853181e+00
   3.9049140e+01  -2.3074133e+01   8.0055083e+00
   5.8698312e+01  -2.2453857e+01   1.1370503e+01
   7.8389168e+01  -2.3015006e+01   1.3835170e+01
  -8.0276228e+01  -1.7897717e+00   5.7364786e+00
  -6.0335648e+01  -2.6463435e+00   7.0607636e+00
  -4.1314110e+01  -2.1520691e+00   8.2291932e+00
  -2.1038240e+01  -2.1717562e+00   9.0565935e+00
  -1.8184957e+00  -2.1010320e+00   9.3523702e+00
   1.9122047e+01  -2.7036464e+00   1.0701083e+01
   3.8594316e+01  -3.1650025e+00   1.2872164e+01
   5.8767288e+01  -3.4883984e+00   1.5761159e+01
   7.9079207e+01  -3.7530445e+00   1.8754117e+01
  -8.0041209e+01   1.7036964e+01   8.2072809e+00
  -6.0442271e+01   1.7516058e+01   9.6463002e+00
  -4.0219421e+01   1.7300629e+01   1.0736937e+01
  -2.1902748e+01   1.7524775e+01   1.0859252e+01
  -1.7867296e+00   1.6864783e+01   1.1278456e+01
   1.9151851e+01   1.6796693e+01   1.2541800e+01
   3.9087602e+01   1.6832668e+01   1.4726317e+01
   5.8156756e+01   1.6886476e+01   1.7738788e+01
   7.8999206e+01   1.6969177e+01   2.0779736e+01
  -7.9780101e+01   3.7476386e+01   5.1494447e+00
  -6.0942111e+01   3.7220575e+01   7.1724127e+00
  -3.9691051e+01   3.7932188e+01   9.0690185e+00
  -2.0572235e+01   3.6810277e+01   9.3012590e+00
  -7.3800644e-01   3.6579433e+01   1.0113481e+01
   1.9008834e+01   3.6470960e+01   1.1685616e+01
   3.8554606e+01   3.7087998e+01   1.3965240e+01
   5.8795665e+01   3.7073433e+01   1.6600544e+01
   7.9452209e+01   3.6100045e+01   1.8796386e+01
  -7.9566722e+01   5.7066145e+01  -7.7085586e-01
  -5.9466629e+01   5.6250743e+01   3.6745449e-01
  -3.9792499e+01   5.6102023e+01   3.3910225e+00
  -1.9368311e+01   5.6254137e+01   3.0938009e+00
   5.7681200e-01   5.6882512e+01   4.5124228e+00
   1.9722511e+01   5.6848669e+01   5.9501492e+00
   3.9138234e+01   5.6848811e+01   8.2693915e+00
   5.9305399e+01   5.6127017e+01   9.9904643e+00
   8.0065080e+01   5.5846908e+01   1.2986584e+01
  -7.9183697e+01   7.3118636e+01  -1.0510865e+01
  -5.8114491e+01   7.3888311e+01  -9.7281884e+00
  -3.8631002e+01   7.3835221e+01  -6.8869454e+00
  -1.8628676e+01   7.4137813e+01  -5.4868988e+00
   1.4156936e+00   7.4568566e+01  -4.3622042e+00
   2.0489944e+01   7.3899064e+01  -3.1345485e+00
   4.1062482e+01   7.3512967e+01  -7.6597953e-01
   6.0937427e+01   7.2715415e+01   1.2334607e+00
   8.1145667e+01   7.1201141e+01   2.7318711e+00
