  -8.1096876e+01  -7.8029634e+01   6.3263300e-01
  -6.1933020e+01  -7.7928986e+01   2.5258846e+00
  -4.2447128e+01  -7.8289855e+01   4.3855314e+00
  -2.2885811e+01  -7.9559474e+01   5.6166344e+00
  -3.4031361e+00  -7.9326897e+01   7.1556955e+00
   1.7446104e+01  -7.9863082e+01   8.9667727e+00
   3.7590743e+01  -8.0092618e+01   1.1018464e+01
   5.7881572e+01  -8.0125764e+01   1.2985402e+01
   7.7647927e+01  -8.2101549e+01   1.5356179e+01
  -8.0563940e+01  -5.8183909e+01  -1.8187298e+00
  -6.0343838e+01  -5.8821412e+01  -1.0268657e-01
  -4.1380128e+01  -5.9410884e+01   2.1983427e+00
  -2.0969070e+01  -5.9638827e+01   3.6352254e+00
  -2.1167017e+00  -5.9368357e+01   5.2767206e+00
   1.9188856e+01  -6.0964625e+01   6.9005127e+00
   3.8639963e+01  -5.9761227e+01   9.0690276e+00
   5.9043985e+01  -6.0779047e+01   1.1980713e+01
   7.7577071e+01  -6.1107962e+01   1.4048248e+01
  -8.0008969e+01  -3.8442160e+01  -4.5375560e+00
  -6.1333251e+01  -3.8417590e+01  -2.5525553e+00
  -4.1088612e+01  -3.8302087e+01  -3.0689781e-01
  -2.1994302e+01  -3.9566793e+01   1.2305585e+00
  -1.6747190e+00  -3.9982279e+01   2.9057203e+00
   1.9490530e+01  -3.9867014e+01   4.5953816e+00
   3.8492307e+01  -4.0341609e+01   6.8347598e+00
   5.7836667e+01  -4.0803147e+01   9.6884050e+00
   7.8703661e+01  -4.1022892e+01   1.2526970e+01
  -7.9814501e+01  -1.8084580e+01  -7.4795001e+00
  -5.9849339e+01  -1.8240010e+01  -4.6997319e+00
  -4.0394132e+01  -1.8942095e+01  -2.5371701e+00
  -2.0636768e+01  -1.9004540e+01  -8.9260306e-01
  -9.4844259e-01  -1.9906998e+01   8.2255661e-01
   1.8740506e+01  -2.0025120e+01   2.5356090e+00
   3.9159307e+01  -2.1285451e+01   5.0024265e+00
   5.8877792e+01  -2.0749647e+01   7.9506732e+00
   7.8523212e+01  -2.1545549e+01   1.0696606e+01
  -7.8924155e+01   1.5193822e+00  -9.8144556e+00
  -5.9212753e+01   5.7125113e-01  -6.8797874e+00
  -4.0290997e+01   9.1470735e-01  -4.5824746e+00
  -2.0095107e+01   7.6838574e-01  -2.6075078e+00
  -9.4228870e-01   4.5119632e-01  -1.0075128e+00
   1.9953667e+01  -2.9157840e-01   8.6219628e-01
   3.9410224e+01  -8.7113294e-01   3.1430341e+00
   5.9600310e+01  -1.4067417e+00   5.8767446e+00
   7.9929420e+01  -1.8003418e+00   8.7358146e+00
  -7.8172371e+01   2.0352642e+01  -1.2006743e+01
  -5.8768071e+01   2.0785251e+01  -8.9810422e+00
  -3.8687478e+01   2.0411797e+01  -6.3676407e+00
  -2.0483002e+01   2.0487340e+01  -4.3287475e+00
  -4.5626956e-01   1.9444579e+01  -2.5657616e+00
   2.0459461e+01   1.9216413e+01  -9.8305149e-01
   4.0397014e+01   1.9098062e+01   1.1820287e+00
   5.9570315e+01   1.8922253e+01   3.4323798e+00
   8.0502107e+01   1.8789318e+01   5.7785156e+00
  -7.7778146e+01   4.0911948e+01  -1.4091937e+01
  -5.9014723e+01   4.0486237e+01  -1.1520384e+01
  -3.7872818e+01   4.0996804e+01  -8.4451705e+00
  -1.8907412e+01   3.9737275e+01  -6.0853606e+00
   8.6564022e-01   3.9088223e+01  -4.4377181e+00
   2.0597730e+01   3.8844344e+01  -2.7038616e+00
   4.0198992e+01   3.9265786e+01  -9.0733005e-01
   6.0512561e+01   3.8991417e+01   1.0748707e+00
   8.1211469e+01   3.7753414e+01   2.6511271e+00
  -7.7631073e+01   6.1167377e+01  -1.7015997e+01
  -5.7812110e+01   6.0559865e+01  -1.4017377e+01
  -3.8159252e+01   5.9868175e+01  -1.0931566e+01
  -1.7904877e+01   6.0039741e+01  -8.2877512e+00
   2.0419348e+00   6.0029757e+01  -6.7580829e+00
   2.1187132e+01   5.9854909e+01  -5.3239112e+00
   4.0664374e+01   5.9656145e+01  -3.6073204e+00
   6.0837388e+01   5.8933773e+01  -1.9564581e+00
   8.1728488e+01   5.8135744e+01  -2.4046694e-01
  -7.7478217e+01   7.9700710e+01  -1.8390138e+01
  -5.6508533e+01   8.1012276e+01  -1.6160438e+01
  -3.6945800e+01   8.0050638e+01  -1.4146351e+01
  -1.6978326e+01   7.9623586e+01  -1.1388694e+01
   3.0286910e+00   7.9612735e+01  -9.6721892e+00
   2.2115844e+01   7.9341405e+01  -8.4934766e+00
   4.2739390e+01   7.8615741e+01  -6.7239297e+00
   6.2672834e+01   7.7917399e+01  -5.3758169e+00
   8.2947253e+01   7.7155104e+01  -4.2454708e+00
