  -7.8040907e+01  -6.2113328e+01  -3.6846575e+01
  -5.8585615e+01  -6.2876015e+01  -3.8427286e+01
  -3.9011818e+01  -6.2995587e+01  -3.8802372e+01
  -1.9392900e+01  -6.3620759e+01  -3.8109637e+01
   6.3906696e-02  -6.3704359e+01  -3.6259474e+01
   2.0933464e+01  -6.4251684e+01  -3.4703741e+01
   4.1164472e+01  -6.4405939e+01  -3.3837053e+01
   6.1418142e+01  -6.5066695e+01  -3.1614460e+01
   8.1433454e+01  -6.5187738e+01  -3.1217313e+01
  -7.8890985e+01  -5.1206141e+01  -2.5776723e+01
  -5.8581378e+01  -5.1638682e+01  -2.4397175e+01
  -3.9617048e+01  -5.1714457e+01  -2.3520791e+01
  -1.9201332e+01  -5.1921890e+01  -2.2148432e+01
  -4.5837099e-01  -5.2666581e+01  -1.9633219e+01
   2.0939468e+01  -5.3779083e+01  -1.9713094e+01
   4.0398294e+01  -5.3544073e+01  -1.7305799e+01
   6.0948344e+01  -5.4336061e+01  -1.5448277e+01
   7.9434669e+01  -5.4921057e+01  -1.2967751e+01
  -7.9771159e+01  -3.6473834e+01  -1.2450633e+01
  -6.1227193e+01  -3.6955875e+01  -1.0229903e+01
  -4.0984967e+01  -3.6935984e+01  -8.7100222e+00
  -2.1898720e+01  -3.8616474e+01  -7.5070708e+00
  -1.5468345e+00  -3.9254982e+01  -6.3857874e+00
   1.9628895e+01  -3.9540308e+01  -4.8550705e+00
   3.8705649e+01  -3.9940854e+01  -3.3635685e+00
   5.8122960e+01  -4.0503628e+01  -1.0806088e+00
   7.8998908e+01  -4.1024892e+01   1.6507374e+00
  -8.0714370e+01  -1.8610716e+01  -2.2946842e+00
  -6.0779214e+01  -1.9768095e+01   6.4790072e-01
  -4.1274822e+01  -2.0869140e+01   2.0765563e+00
  -2.1483461e+01  -2.1218914e+01   3.1908402e+00
  -1.7485796e+00  -2.2310665e+01   4.0445957e+00
   1.7938491e+01  -2.2796835e+01   5.7137484e+00
   3.8370798e+01  -2.4407774e+01   7.8413765e+00
   5.8077433e+01  -2.4305054e+01   1.0913165e+01
   7.7779690e+01  -2.5251040e+01   1.3159376e+01
  -8.0475337e+01  -7.2137078e-01   6.1002106e+00
  -6.0531687e+01  -1.9345910e+00   7.0452667e+00
  -4.1495540e+01  -1.8280573e+00   8.0661291e+00
  -2.1229762e+01  -2.2702260e+00   9.0140939e+00
  -2.0352868e+00  -2.7496256e+00   9.9269665e+00
   1.8882324e+01  -3.7980007e+00   1.1356285e+01
   3.8302753e+01  -4.7915910e+00   1.3796660e+01
   5.8417963e+01  -5.7920511e+00   1.6923489e+01
   7.8681465e+01  -6.6415003e+00   2.0128300e+01
  -7.9853469e+01   1.8105372e+01   8.5029373e+00
  -6.0232908e+01   1.8216504e+01   9.7028775e+00
  -4.0028796e+01   1.7548365e+01   1.0946666e+01
  -2.1719027e+01   1.7367149e+01   1.1480751e+01
  -1.6418920e+00   1.6158249e+01   1.2324979e+01
   1.9281234e+01   1.5654394e+01   1.3736982e+01
   3.9174726e+01   1.5131702e+01   1.6223617e+01
   5.8215177e+01   1.4541470e+01   1.9357838e+01
   7.8962084e+01   1.3985365e+01   2.2952071e+01
  -7.9150109e+01   3.8720666e+01   7.1977709e+00
  -6.0314047e+01   3.8068789e+01   8.9830455e+00
  -3.9026385e+01   3.8229498e+01   1.0855842e+01
  -1.9945089e+01   3.6679837e+01   1.1442750e+01
  -1.2506808e-01   3.5876666e+01   1.2237279e+01
   1.9599953e+01   3.5353898e+01   1.3989805e+01
   3.9172367e+01   3.5408060e+01   1.6118721e+01
   5.9338527e+01   3.4738789e+01   1.9204747e+01
   7.9969755e+01   3.3122568e+01   2.1254699e+01
  -7.8395839e+01   5.8120454e+01   8.3433705e-01
  -5.8321385e+01   5.7059668e+01   2.2001546e+00
  -3.8735594e+01   5.6557565e+01   5.7186980e+00
  -1.8314386e+01   5.6364707e+01   6.1614286e+00
   1.6411386e+00   5.6381274e+01   7.5728207e+00
   2.0793682e+01   5.5857708e+01   8.8105468e+00
   4.0263110e+01   5.4835717e+01   1.0309230e+01
   6.0258647e+01   5.4047510e+01   1.3432511e+01
   8.1084056e+01   5.2914384e+01   1.5677034e+01
  -7.7307648e+01   7.4702901e+01  -7.9141021e+00
  -5.6218688e+01   7.5448622e+01  -6.8562341e+00
  -3.6872227e+01   7.4938748e+01  -3.2318316e+00
  -1.6736905e+01   7.4028025e+01  -2.7559707e+00
   3.2760381e+00   7.4125156e+01  -1.1128270e+00
   2.2357217e+01   7.3214494e+01  -1.8454071e-01
   4.2930209e+01   7.1735190e+01   1.7001808e+00
   6.2771910e+01   7.0746017e+01   3.9308118e+00
   8.2919596e+01   6.9171155e+01   4.9634579e+00
