  -8.1576964e+01  -7.4723220e+01   8.9398534e+00
  -6.2112707e+01  -7.4970124e+01   1.0574000e+01
  -4.2548182e+01  -7.5493107e+01   1.1068332e+01
  -2.2969029e+01  -7.6957213e+01   1.1602989e+01
  -3.4248444e+00  -7.6811788e+01   1.1569774e+01
   1.7494981e+01  -7.7205548e+01   1.2251058e+01
   3.7744989e+01  -7.7257452e+01   1.2195299e+01
   5.8125956e+01  -7.6817979e+01   1.2091747e+01
   7.8080642e+01  -7.8390951e+01   1.2440080e+01
  -8.1047458e+01  -5.5251910e+01   1.3493274e+01
  -6.0696615e+01  -5.5894583e+01   1.3515544e+01
  -4.1599062e+01  -5.6632989e+01   1.3462672e+01
  -2.1140077e+01  -5.7008899e+01   1.3334326e+01
  -2.2156278e+00  -5.6828553e+01   1.3224120e+01
   1.9137990e+01  -5.8288385e+01   1.4225845e+01
   3.8687870e+01  -5.7031375e+01   1.5073387e+01
   5.9270688e+01  -5.7939977e+01   1.6453323e+01
   7.7902900e+01  -5.7973010e+01   1.7492059e+01
  -8.0656044e+01  -3.5361165e+01   1.2211976e+01
  -6.1807003e+01  -3.5391576e+01   1.2215347e+01
  -4.1437974e+01  -3.5415016e+01   1.2153400e+01
  -2.2298651e+01  -3.6861482e+01   1.1766096e+01
  -1.9120292e+00  -3.7355656e+01   1.1690781e+01
   1.9306552e+01  -3.7139032e+01   1.2439711e+01
   3.8375724e+01  -3.7509138e+01   1.4032592e+01
   5.7773286e+01  -3.7852606e+01   1.6517987e+01
   7.8742921e+01  -3.7840177e+01   1.8470285e+01
  -8.0645376e+01  -1.5204548e+01   8.1089776e+00
  -6.0450303e+01  -1.5349236e+01   8.9887274e+00
  -4.0880939e+01  -1.6131009e+01   9.3104294e+00
  -2.1061498e+01  -1.6385051e+01   8.8778172e+00
  -1.3023940e+00  -1.7329859e+01   9.1452437e+00
   1.8433714e+01  -1.7322932e+01   1.0188876e+01
   3.8921071e+01  -1.8461123e+01   1.2079332e+01
   5.8761024e+01  -1.7874795e+01   1.4036465e+01
   7.8504214e+01  -1.8429053e+01   1.6041095e+01
  -7.9745985e+01   3.6298163e+00   2.1913882e+00
  -5.9800674e+01   2.7526491e+00   3.4280487e+00
  -4.0750756e+01   3.1257510e+00   4.0524105e+00
  -2.0465677e+01   2.9927875e+00   4.5944437e+00
  -1.2602070e+00   2.7567354e+00   5.3594517e+00
   1.9656368e+01   2.2330224e+00   7.0656527e+00
   3.9186041e+01   1.7453674e+00   8.6308218e+00
   5.9525281e+01   1.1043563e+00   9.7727885e+00
   7.9934577e+01   9.9987344e-01   1.2020371e+01
  -7.8747814e+01   2.0897396e+01  -5.6470057e+00
  -5.9092940e+01   2.1064183e+01  -5.3699993e+00
  -3.8910481e+01   2.1091509e+01  -3.6767235e+00
  -2.0622555e+01   2.1409472e+01  -2.6685727e+00
  -5.6764689e-01   2.0688859e+01  -1.0726738e+00
   2.0332144e+01   2.0767094e+01   7.2104778e-01
   4.0342095e+01   2.0696170e+01   2.0643425e+00
   5.9630509e+01   2.0364156e+01   2.8108694e+00
   8.0496395e+01   2.0602824e+01   5.0254651e+00
  -7.7482335e+01   3.8005118e+01  -1.7175792e+01
  -5.8957106e+01   3.7892410e+01  -1.5926053e+01
  -3.7780862e+01   3.8879838e+01  -1.4213404e+01
  -1.8722485e+01   3.8004145e+01  -1.2524269e+01
   1.0514149e+00   3.7809391e+01  -1.0773680e+01
   2.0772759e+01   3.7864418e+01  -8.9064208e+00
   4.0372769e+01   3.8706932e+01  -7.2497985e+00
   6.0742044e+01   3.8464831e+01  -5.9538495e+00
   8.1265041e+01   3.8016439e+01  -3.1172721e+00
  -7.7686073e+01   5.4527108e+01  -2.9252067e+01
  -5.7596551e+01   5.4312647e+01  -2.7722515e+01
  -3.7799640e+01   5.4093501e+01  -2.5656172e+01
  -1.7402045e+01   5.4437477e+01  -2.4617561e+01
   2.5226424e+00   5.4870822e+01  -2.2875633e+01
   2.1600408e+01   5.5277839e+01  -2.0754505e+01
   4.1021047e+01   5.5778126e+01  -1.8532417e+01
   6.1139902e+01   5.5658647e+01  -1.6205394e+01
   8.1987185e+01   5.5557126e+01  -1.3881599e+01
  -7.7116278e+01   6.9738199e+01  -4.0251840e+01
  -5.6008770e+01   7.0676723e+01  -4.0143828e+01
  -3.6388753e+01   6.9895055e+01  -3.8685842e+01
  -1.6326548e+01   7.0146902e+01  -3.6703032e+01
   3.6730277e+00   7.0533928e+01  -3.4943929e+01
   2.2684502e+01   7.0826207e+01  -3.2879753e+01
   4.2761900e+01   7.0959119e+01  -2.9581528e+01
   6.2655935e+01   7.0735638e+01  -2.7625847e+01
   8.2226299e+01   7.2187621e+01  -2.4167610e+01
