  -7.9439585e+01  -6.7836912e+01  -2.2669312e+01
  -6.0412103e+01  -6.7116457e+01  -2.1600607e+01
  -4.0966160e+01  -6.8291788e+01  -1.9660922e+01
  -2.1368622e+01  -6.8884977e+01  -1.9576993e+01
  -1.9053843e+00  -6.9051974e+01  -1.7801632e+01
   1.8909187e+01  -6.8983536e+01  -1.8088349e+01
   3.9130157e+01  -6.9378731e+01  -1.7076009e+01
   5.9421647e+01  -6.8629996e+01  -1.5264239e+01
   7.7913245e+01  -7.0231595e+01  -1.4346192e+01
  -8.0555725e+01  -5.3624737e+01  -8.6366994e+00
  -6.0245582e+01  -5.4279259e+01  -7.3560642e+00
  -4.1183746e+01  -5.5031289e+01  -6.1961553e+00
  -2.0767690e+01  -5.5413488e+01  -4.8670808e+00
  -1.8732309e+00  -5.5477958e+01  -3.7832351e+00
   1.9502125e+01  -5.6951039e+01  -3.5941727e+00
   3.9004999e+01  -5.6002707e+01  -1.7956203e+00
   5.9538362e+01  -5.6895899e+01   1.9571028e-01
   7.8123840e+01  -5.6840818e+01   1.8738303e+00
  -8.0925164e+01  -3.6793340e+01   2.0405775e+00
  -6.2140998e+01  -3.6964518e+01   3.5939997e+00
  -4.1940659e+01  -3.7218544e+01   5.1501256e+00
  -2.2795305e+01  -3.8628809e+01   5.3002979e+00
  -2.4474518e+00  -3.9310667e+01   6.4682748e+00
   1.8766917e+01  -3.9346287e+01   7.3544429e+00
   3.7799088e+01  -3.9939291e+01   9.2863868e+00
   5.7239653e+01  -4.0317285e+01   1.1403492e+01
   7.8127502e+01  -4.0760524e+01   1.4056506e+01
  -8.1222459e+01  -1.6975815e+01   7.5452339e+00
  -6.1059383e+01  -1.7362700e+01   8.9368370e+00
  -4.1503432e+01  -1.8280603e+01   9.5668619e+00
  -2.1681420e+01  -1.8504895e+01   9.8822056e+00
  -1.9354758e+00  -1.9534495e+01   1.0533352e+01
   1.7776555e+01  -1.9934309e+01   1.1904191e+01
   3.8218447e+01  -2.1390440e+01   1.4051236e+01
   5.7907631e+01  -2.1029001e+01   1.7214034e+01
   7.7625188e+01  -2.1930494e+01   1.9341138e+01
  -8.0290611e+01   2.7642972e+00   7.6855659e+00
  -6.0419617e+01   1.5613842e+00   9.6376828e+00
  -4.1360927e+01   1.6748187e+00   1.0064225e+01
  -2.1071085e+01   1.3399928e+00   9.9863334e+00
  -1.8684433e+00   9.0468791e-01   1.0734749e+01
   1.9034296e+01  -1.3821825e-01   1.2370697e+01
   3.8492376e+01  -8.9884627e-01   1.4584353e+01
   5.8660488e+01  -1.5777575e+00   1.7445476e+01
   7.8969733e+01  -2.1132558e+00   2.0420321e+01
  -7.9039410e+01   2.1280011e+01   3.6595386e+00
  -5.9663793e+01   2.1388929e+01   5.2199891e+00
  -3.9515152e+01   2.1027875e+01   7.2451952e+00
  -2.1196876e+01   2.0947634e+01   7.2523093e+00
  -1.1257851e+00   1.9797087e+01   8.2978120e+00
   1.9793208e+01   1.9274341e+01   9.7631866e+00
   3.9725013e+01   1.8980883e+01   1.1964233e+01
   5.8818849e+01   1.8730495e+01   1.4805575e+01
   7.9782095e+01   1.8379147e+01   1.6825672e+01
  -7.8073938e+01   3.9264197e+01  -6.3614362e+00
  -5.9255022e+01   3.8881380e+01  -4.1866570e+00
  -3.8025228e+01   3.9574710e+01  -1.8387107e+00
  -1.8981016e+01   3.8820354e+01   5.6198566e-02
   8.1598133e-01   3.8235708e+01   1.4151365e+00
   2.0556932e+01   3.7681171e+01   2.9670568e+00
   4.0128324e+01   3.7835725e+01   5.1004462e+00
   6.0362140e+01   3.7638890e+01   7.7836207e+00
   8.1041336e+01   3.6034171e+01   9.2862140e+00
  -7.7214428e+01   5.6503648e+01  -1.7357651e+01
  -5.7317473e+01   5.5522935e+01  -1.5585621e+01
  -3.7542502e+01   5.4616502e+01  -1.3496510e+01
  -1.7145120e+01   5.4901882e+01  -1.2436184e+01
   2.8087129e+00   5.5164458e+01  -1.1025199e+01
   2.1897499e+01   5.4428941e+01  -9.1008138e+00
   4.1201967e+01   5.4664175e+01  -5.9973715e+00
   6.1307313e+01   5.4267224e+01  -3.5859166e+00
   8.2150177e+01   5.3663463e+01  -1.2989885e+00
  -7.4379691e+01   7.1437460e+01  -2.8386816e+01
  -5.4727610e+01   7.2116694e+01  -2.7524333e+01
  -3.5303319e+01   6.9772855e+01  -2.7161167e+01
  -1.5195913e+01   6.8313444e+01  -2.6939009e+01
   4.7299402e+00   6.9188949e+01  -2.4610677e+01
   2.3706762e+01   6.8711705e+01  -2.2279397e+01
   4.4065126e+01   6.9127859e+01  -1.8490945e+01
   6.3860602e+01   6.8681062e+01  -1.5736532e+01
   8.3752316e+01   6.9619589e+01  -1.2491294e+01
