  -7.9566643e+01  -7.2664257e+01   1.9886158e+01
  -6.0038118e+01  -7.2196906e+01   1.9969771e+01
  -4.0516954e+01  -7.1396182e+01   2.1223361e+01
  -2.0887949e+01  -7.1918573e+01   2.1672769e+01
  -1.3684641e+00  -7.1011771e+01   2.2078769e+01
   1.9535701e+01  -7.0644310e+01   2.3146074e+01
   3.9752171e+01  -6.9495780e+01   2.3355519e+01
   6.0072272e+01  -6.8550450e+01   2.3882605e+01
   7.9946921e+01  -6.8724185e+01   2.4419980e+01
  -8.0231977e+01  -5.3541457e+01   2.0162663e+01
  -5.9995806e+01  -5.2990419e+01   2.2345342e+01
  -4.0889921e+01  -5.2886197e+01   2.2813135e+01
  -2.0432327e+01  -5.2430950e+01   2.2726643e+01
  -1.5448063e+00  -5.1290858e+01   2.3102416e+01
   1.9822784e+01  -5.1825252e+01   2.4603106e+01
   3.9244479e+01  -4.9702692e+01   2.6273047e+01
   5.9792409e+01  -4.9655915e+01   2.8313288e+01
   7.8214750e+01  -4.8883607e+01   3.1187362e+01
  -8.0697387e+01  -3.3804199e+01   1.7394875e+01
  -6.1926897e+01  -3.2815915e+01   1.8801751e+01
  -4.1591516e+01  -3.1894585e+01   1.9526421e+01
  -2.2416955e+01  -3.2433362e+01   2.0302227e+01
  -2.0335908e+00  -3.1916941e+01   2.0642854e+01
   1.9126370e+01  -3.0774244e+01   2.1979383e+01
   3.8134080e+01  -3.0295736e+01   2.4166974e+01
   5.7445554e+01  -2.9680432e+01   2.7208185e+01
   7.8292068e+01  -2.8741732e+01   3.0050523e+01
  -8.1150481e+01  -1.4478750e+01   1.0363115e+01
  -6.1026895e+01  -1.3632415e+01   1.2083833e+01
  -4.1606854e+01  -1.3034678e+01   1.4569670e+01
  -2.1806828e+01  -1.2338931e+01   1.5302375e+01
  -2.0407878e+00  -1.2232338e+01   1.6126183e+01
   1.7633275e+01  -1.1317937e+01   1.7768833e+01
   3.8064803e+01  -1.1506896e+01   2.0436803e+01
   5.7753531e+01  -9.9288654e+00   2.3204781e+01
   7.7419526e+01  -9.6421363e+00   2.5903983e+01
  -8.0109030e+01   1.8372964e+00  -7.3922963e-01
  -6.0393414e+01   2.7139759e+00   2.5226817e+00
  -4.1530433e+01   4.3446002e+00   4.7492131e+00
  -2.1336379e+01   5.4191376e+00   6.4348739e+00
  -2.1840541e+00   6.4076693e+00   7.7395937e+00
   1.8653002e+01   7.0029872e+00   1.0219753e+01
   3.8080822e+01   7.4298948e+00   1.2764010e+01
   5.8269539e+01   7.9462168e+00   1.5511512e+01
   7.8599678e+01   8.6973929e+00   1.8290556e+01
  -7.8740677e+01   1.5594619e+01  -1.3757284e+01
  -5.9397900e+01   1.7815954e+01  -1.1047802e+01
  -3.9331507e+01   1.8721411e+01  -8.4555812e+00
  -2.1166006e+01   2.0262174e+01  -6.6649551e+00
  -1.2123115e+00   2.1248160e+01  -4.1863651e+00
   1.9568344e+01   2.2574658e+01  -1.6507031e+00
   3.9421613e+01   2.3606171e+01   9.9340470e-01
   5.8478204e+01   2.4781972e+01   3.8524789e+00
   7.9320830e+01   2.5951793e+01   6.6593210e+00
  -7.7516799e+01   2.9289617e+01  -2.9188993e+01
  -5.8762459e+01   3.0132415e+01  -2.6621463e+01
  -3.7624161e+01   3.2096294e+01  -2.4169264e+01
  -1.8698284e+01   3.2745949e+01  -2.1300320e+01
   1.0016840e+00   3.3964316e+01  -1.9170423e+01
   2.0477767e+01   3.5800221e+01  -1.6050689e+01
   3.9947142e+01   3.7426481e+01  -1.3618961e+01
   5.9970446e+01   3.9197176e+01  -1.0072489e+01
   8.0485740e+01   3.9735415e+01  -6.7116823e+00
  -7.6178035e+01   4.1727104e+01  -4.5386857e+01
  -5.6210611e+01   4.2165260e+01  -4.2725206e+01
  -3.7119130e+01   4.3177877e+01  -3.9639758e+01
  -1.6833645e+01   4.4698700e+01  -3.7783661e+01
   3.0076529e+00   4.6338835e+01  -3.5821990e+01
   2.1866254e+01   4.8219526e+01  -3.2749178e+01
   4.1206136e+01   4.9084828e+01  -2.9997934e+01
   6.1001185e+01   5.1060538e+01  -2.6196582e+01
   8.1379908e+01   5.3593669e+01  -2.1917512e+01
  -7.5007127e+01   5.1711786e+01  -6.1249770e+01
  -5.4250703e+01   5.4845936e+01  -5.8848243e+01
  -3.5201320e+01   5.4416476e+01  -5.6123813e+01
  -1.5220593e+01   5.5990224e+01  -5.3937290e+01
   4.6220350e+00   5.8103833e+01  -5.1694519e+01
   2.3471774e+01   5.9309674e+01  -4.8691906e+01
   4.3873267e+01   6.0535806e+01  -4.5335690e+01
   6.3287061e+01   6.2236129e+01  -4.1689854e+01
   8.3196215e+01   6.3537646e+01  -3.8658208e+01
