  -8.1378449e+01  -7.4850001e+01   1.2716172e+01
  -6.1931903e+01  -7.4448093e+01   1.4521440e+01
  -4.2391039e+01  -7.4507502e+01   1.5437251e+01
  -2.2775565e+01  -7.5406236e+01   1.4992127e+01
  -3.2958267e+00  -7.5166421e+01   1.6566838e+01
   1.7622979e+01  -7.5497828e+01   1.7309828e+01
   3.7850677e+01  -7.5282996e+01   1.8238636e+01
   5.8196107e+01  -7.4638062e+01   1.9350049e+01
   7.7804711e+01  -7.5382874e+01   2.1337620e+01
  -8.1281106e+01  -5.4917400e+01   1.4397809e+01
  -6.0931696e+01  -5.5128341e+01   1.5051564e+01
  -4.1888963e+01  -5.5516308e+01   1.6629015e+01
  -2.1427253e+01  -5.5665098e+01   1.6784312e+01
  -2.5222574e+00  -5.5173662e+01   1.7518552e+01
   1.8815119e+01  -5.6514456e+01   1.8943402e+01
   3.8271931e+01  -5.5003569e+01   2.0852825e+01
   5.8768985e+01  -5.5637910e+01   2.3271623e+01
   7.7184174e+01  -5.4929325e+01   2.6207287e+01
  -8.0997152e+01  -3.5255435e+01   1.1117087e+01
  -6.2284061e+01  -3.4673443e+01   1.3300845e+01
  -4.1937619e+01  -3.4394281e+01   1.4220681e+01
  -2.2780063e+01  -3.5593025e+01   1.4547823e+01
  -2.3958016e+00  -3.5788495e+01   1.5102706e+01
   1.8775249e+01  -3.5410486e+01   1.6677418e+01
   3.7795585e+01  -3.5564883e+01   1.8801233e+01
   5.7124820e+01  -3.5616589e+01   2.1790977e+01
   7.7769009e+01  -3.4766558e+01   2.5869222e+01
  -8.1043893e+01  -1.5329046e+01   6.0121088e+00
  -6.0906078e+01  -1.5144117e+01   7.7642665e+00
  -4.1382570e+01  -1.5533313e+01   9.2991422e+00
  -2.1580760e+01  -1.5361327e+01   1.0258652e+01
  -1.8381459e+00  -1.5944779e+01   1.1387883e+01
   1.7855643e+01  -1.5803147e+01   1.3042511e+01
   3.8282874e+01  -1.6684499e+01   1.5602305e+01
   5.8044777e+01  -1.5813416e+01   1.8153047e+01
   7.7553213e+01  -1.5625729e+01   2.1827960e+01
  -7.9865215e+01   2.6399322e+00  -2.1295481e+00
  -6.0015729e+01   2.2541226e+00   3.1242479e-01
  -4.1022001e+01   2.9575446e+00   1.7861748e+00
  -2.0838911e+01   3.4134720e+00   3.8430852e+00
  -1.6906743e+00   3.6324418e+00   5.5128546e+00
   1.9141249e+01   3.3676465e+00   8.0914876e+00
   3.8587861e+01   3.1729857e+00   1.0517822e+01
   5.8829463e+01   2.9112927e+00   1.2886097e+01
   7.9018752e+01   3.5054384e+00   1.6579535e+01
  -7.8447589e+01   1.8449453e+01  -1.2553341e+01
  -5.8923443e+01   1.9438098e+01  -1.0492052e+01
  -3.8867334e+01   2.0007231e+01  -7.7301379e+00
  -2.0672892e+01   2.0740590e+01  -5.7325983e+00
  -7.3200859e-01   2.0676690e+01  -2.9716918e+00
   2.0056920e+01   2.1103884e+01  -2.0351837e-01
   3.9921288e+01   2.1522112e+01   2.5240385e+00
   5.9100469e+01   2.1692359e+01   4.7241513e+00
   7.9877229e+01   2.2498452e+01   8.0913997e+00
  -7.6796608e+01   3.4603644e+01  -2.5340244e+01
  -5.8257024e+01   3.5257273e+01  -2.2489864e+01
  -3.7040167e+01   3.6424813e+01  -2.0213998e+01
  -1.8133143e+01   3.6201939e+01  -1.7161707e+01
   1.4422622e+00   3.6665036e+01  -1.4407151e+01
   2.0994543e+01   3.7303139e+01  -1.1289101e+01
   4.0495455e+01   3.8340033e+01  -8.7883264e+00
   6.0644609e+01   3.9010910e+01  -5.5934858e+00
   8.1173818e+01   3.8640285e+01  -2.2955678e+00
  -7.5785592e+01   5.0712473e+01  -3.7923472e+01
  -5.5998499e+01   5.1035994e+01  -3.5002372e+01
  -3.6434878e+01   5.0598589e+01  -3.2907718e+01
  -1.6160946e+01   5.1501230e+01  -3.0581388e+01
   3.5779734e+00   5.2943886e+01  -2.7664352e+01
   2.2555551e+01   5.3530796e+01  -2.4812500e+01
   4.1783425e+01   5.4540663e+01  -2.1403950e+01
   6.1495398e+01   5.5603500e+01  -1.6875581e+01
   8.2162064e+01   5.6014263e+01  -1.3306302e+01
  -7.4700707e+01   6.6206154e+01  -4.8481211e+01
  -5.3576954e+01   6.6610769e+01  -4.8274735e+01
  -3.4347542e+01   6.6485261e+01  -4.5741607e+01
  -1.4385983e+01   6.6928975e+01  -4.2944055e+01
   5.5992334e+00   6.7421884e+01  -4.1053183e+01
   2.4231913e+01   6.8976337e+01  -3.7029588e+01
   4.4434453e+01   7.0070480e+01  -3.2596898e+01
   6.3886677e+01   7.1196789e+01  -2.8125915e+01
   8.2437185e+01   7.1538870e+01  -2.5195095e+01
