  -7.8286415e+01  -7.4903645e+01  -6.0389761e+00
  -5.8842073e+01  -7.3915369e+01  -4.4485175e+00
  -3.9328502e+01  -7.3677282e+01  -2.8825184e+00
  -1.9692258e+01  -7.3873929e+01  -2.4927009e+00
  -3.6434927e-01  -7.3504221e+01  -1.0591107e+00
   2.0488654e+01  -7.3622508e+01   7.8382697e-01
   4.0708621e+01  -7.2790898e+01   1.4379845e+00
   6.0909542e+01  -7.1647029e+01   3.9283720e+00
   8.0544798e+01  -7.1251004e+01   4.5330278e+00
  -7.9227867e+01  -5.6760682e+01   2.3331523e+00
  -5.8939097e+01  -5.6740074e+01   4.0465625e+00
  -3.9889169e+01  -5.6829892e+01   5.5817198e+00
  -1.9441214e+01  -5.6422443e+01   6.2472986e+00
  -6.4572746e-01  -5.5894232e+01   8.3990736e+00
   2.0738197e+01  -5.6748485e+01   9.4524449e+00
   4.0163343e+01  -5.4963759e+01   1.1446100e+01
   6.0669518e+01  -5.4979544e+01   1.3870708e+01
   7.9085087e+01  -5.4220088e+01   1.6791230e+01
  -8.0021865e+01  -3.7878688e+01   8.6795290e+00
  -6.1218723e+01  -3.7101229e+01   9.7400549e+00
  -4.0871841e+01  -3.6319277e+01   1.0282886e+01
  -2.1696613e+01  -3.7053676e+01   1.0854936e+01
  -1.3451767e+00  -3.6763660e+01   1.2119522e+01
   1.9832403e+01  -3.5953269e+01   1.3419293e+01
   3.8853377e+01  -3.5890071e+01   1.5542059e+01
   5.8100782e+01  -3.5674063e+01   1.9013556e+01
   7.8816958e+01  -3.4943078e+01   2.2734166e+01
  -8.0818316e+01  -1.7325210e+01   8.8896583e+00
  -6.0675119e+01  -1.6776932e+01   1.0498031e+01
  -4.1107629e+01  -1.6924327e+01   1.1373423e+01
  -2.1292252e+01  -1.6357816e+01   1.1676380e+01
  -1.5165926e+00  -1.6568378e+01   1.2191511e+01
   1.8202503e+01  -1.6166092e+01   1.3455874e+01
   3.8654755e+01  -1.6738799e+01   1.5900970e+01
   5.8291732e+01  -1.5520035e+01   1.9172304e+01
   7.7907145e+01  -1.5406791e+01   2.2228782e+01
  -8.0515941e+01   2.1580721e+00   5.5926395e+00
  -6.0618703e+01   1.9533266e+00   7.6352264e+00
  -4.1578415e+01   2.7654807e+00   8.1212944e+00
  -2.1316875e+01   3.3282621e+00   9.0955571e+00
  -2.1133200e+00   3.7274954e+00   9.8406199e+00
   1.8819541e+01   3.5604193e+00   1.1414120e+01
   3.8260067e+01   3.6593049e+00   1.3894417e+01
   5.8484835e+01   3.7498328e+00   1.6414383e+01
   7.8708391e+01   4.3342551e+00   1.9916973e+01
  -7.9495766e+01   1.9517803e+01  -2.0365851e+00
  -6.0222442e+01   2.0668234e+01  -2.9030345e-01
  -4.0003773e+01   2.0950656e+01   8.6082060e-01
  -2.1732625e+01   2.1765075e+01   1.8940754e+00
  -1.6712967e+00   2.1724447e+01   3.5694717e+00
   1.9231052e+01   2.2172013e+01   5.2772043e+00
   3.9099316e+01   2.2815443e+01   7.9315723e+00
   5.8320674e+01   2.3100920e+01   9.7115662e+00
   7.9054501e+01   2.4066447e+01   1.3280650e+01
  -7.8929442e+01   3.5796504e+01  -1.4342730e+01
  -6.0108817e+01   3.6514718e+01  -1.2270035e+01
  -3.8853106e+01   3.8082858e+01  -1.0710089e+01
  -1.9793931e+01   3.7803505e+01  -8.8361812e+00
  -4.9473795e-02   3.8441877e+01  -6.8718708e+00
   1.9666350e+01   3.8750913e+01  -4.9713707e+00
   3.9200830e+01   3.9986545e+01  -2.8519635e+00
   5.9433878e+01   4.0308521e+01  -1.7510221e-01
   8.0049988e+01   3.9992645e+01   2.5338255e+00
  -7.8313289e+01   5.0757822e+01  -2.8293841e+01
  -5.8231166e+01   5.0659214e+01  -2.6658902e+01
  -3.8486052e+01   5.1447126e+01  -2.4262006e+01
  -1.8160714e+01   5.2746123e+01  -2.2696066e+01
   1.7498742e+00   5.3896683e+01  -2.1127637e+01
   2.0831714e+01   5.4436444e+01  -1.9073849e+01
   4.0251713e+01   5.4548050e+01  -1.6793425e+01
   6.0312063e+01   5.4943964e+01  -1.4032398e+01
   8.1151576e+01   5.4892462e+01  -1.1638329e+01
  -7.6319462e+01   6.2205290e+01  -4.3047726e+01
  -5.6140315e+01   6.3715076e+01  -4.2462886e+01
  -3.7195274e+01   6.4756761e+01  -3.9838893e+01
  -1.7073900e+01   6.4605394e+01  -3.8576175e+01
   2.8705481e+00   6.5743544e+01  -3.6538814e+01
   2.1830521e+01   6.6020013e+01  -3.4043742e+01
   4.2205290e+01   6.7230648e+01  -3.0523565e+01
   6.1899898e+01   6.8257736e+01  -2.7250218e+01
   8.1659849e+01   6.6883916e+01  -2.7077863e+01
