  -7.6291325e+01  -7.1482917e+01  -2.2922485e+01
  -5.6928497e+01  -7.0624088e+01  -2.0486922e+01
  -3.7876653e+01  -7.0949751e+01  -1.9190469e+01
  -1.8480386e+01  -7.1441602e+01  -1.8408919e+01
   9.4257254e-01  -7.1311739e+01  -1.6234236e+01
   2.1840511e+01  -7.1284382e+01  -1.4995806e+01
   4.1993833e+01  -7.1452691e+01  -1.3025044e+01
   6.2222692e+01  -7.0645390e+01  -1.0631463e+01
   8.2136416e+01  -7.0894325e+01  -8.5902243e+00
  -7.8006874e+01  -5.7222922e+01  -8.9992879e+00
  -5.7672960e+01  -5.6612143e+01  -8.1452968e+00
  -3.8677952e+01  -5.7149428e+01  -6.1043382e+00
  -1.8243318e+01  -5.6417206e+01  -5.3185590e+00
   5.7865219e-01  -5.6059727e+01  -3.3730229e+00
   2.1994664e+01  -5.6608739e+01  -2.9673400e+00
   4.1432261e+01  -5.5436701e+01  -6.6465462e-01
   6.1989177e+01  -5.5323182e+01   1.2802165e+00
   8.0389270e+01  -5.4300905e+01   4.2180651e+00
  -7.9165824e+01  -3.9658128e+01   3.5867422e-01
  -6.0381787e+01  -3.9038489e+01   1.7949783e+00
  -4.0094699e+01  -3.8409599e+01   3.5097039e+00
  -2.0915308e+01  -3.9094399e+01   3.9975182e+00
  -5.5545415e-01  -3.8940494e+01   5.1450759e+00
   2.0634203e+01  -3.8137717e+01   6.2359464e+00
   3.9696321e+01  -3.7966924e+01   7.9430071e+00
   5.9058422e+01  -3.7763767e+01   1.0704950e+01
   7.9573887e+01  -3.7569603e+01   1.5460492e+01
  -8.0304146e+01  -2.0057184e+01   6.4930998e+00
  -6.0123790e+01  -1.9523647e+01   7.5440193e+00
  -4.0546356e+01  -1.9614448e+01   8.1689173e+00
  -2.0732644e+01  -1.9049806e+01   8.5688356e+00
  -9.5981154e-01  -1.9216915e+01   9.1961564e+00
   1.8756743e+01  -1.8721707e+01   1.0467148e+01
   3.9247852e+01  -1.9375897e+01   1.2537797e+01
   5.8919277e+01  -1.8216734e+01   1.5618261e+01
   7.8451521e+01  -1.8392376e+01   1.9165077e+01
  -8.0356773e+01  -3.9424163e-01   8.4745051e+00
  -6.0395827e+01  -7.0438142e-01   9.7309478e+00
  -4.1359635e+01   2.8838636e-01   9.4736282e+00
  -2.1073018e+01   7.7607028e-01   9.5796258e+00
  -1.8611363e+00   1.1853698e+00   1.0056194e+01
   1.9087109e+01   1.0942911e+00   1.1416784e+01
   3.8583817e+01   1.0951189e+00   1.3410294e+01
   5.8755423e+01   1.2369860e+00   1.6323342e+01
   7.9107411e+01   1.4884533e+00   1.9031711e+01
  -8.0156007e+01   1.8322873e+01   5.2752273e+00
  -6.0572459e+01   1.9381656e+01   6.6102563e+00
  -4.0326952e+01   1.9753325e+01   7.0355334e+00
  -2.2021259e+01   2.0410326e+01   7.2243876e+00
  -1.8999474e+00   2.0112441e+01   7.7808014e+00
   1.9036073e+01   2.0547869e+01   9.0129947e+00
   3.8993799e+01   2.1026470e+01   1.0928118e+01
   5.8171025e+01   2.1454627e+01   1.3110127e+01
   7.9196498e+01   2.1771851e+01   1.4331089e+01
  -7.9640037e+01   3.7466371e+01  -2.4996520e+00
  -6.0990622e+01   3.7475004e+01  -1.5808251e+00
  -3.9681732e+01   3.8902979e+01  -8.1282932e-01
  -2.0563470e+01   3.8447497e+01   2.4846698e-01
  -7.2800775e-01   3.8665766e+01   1.0335716e+00
   1.9007864e+01   3.9197998e+01   2.6562791e+00
   3.8627578e+01   4.0024979e+01   4.0696209e+00
   5.8980388e+01   4.0224057e+01   5.6087662e+00
   7.9635754e+01   3.9934904e+01   8.0034074e+00
  -7.9955336e+01   5.3808385e+01  -1.4816037e+01
  -5.9864465e+01   5.3969778e+01  -1.3297737e+01
  -4.0030851e+01   5.4517463e+01  -1.1696709e+01
  -1.9620428e+01   5.5260446e+01  -1.1348132e+01
   3.5887726e-01   5.5870067e+01  -1.0528976e+01
   1.9394825e+01   5.6965173e+01  -8.2796546e+00
   3.8936469e+01   5.6595274e+01  -7.6996094e+00
   5.9090373e+01   5.6602347e+01  -5.6951804e+00
   7.9965757e+01   5.6904057e+01  -3.6587945e+00
  -7.9279068e+01   6.7538271e+01  -2.7611735e+01
  -5.8600286e+01   6.7976120e+01  -2.8358193e+01
  -3.9372243e+01   6.9393271e+01  -2.5829245e+01
  -1.9223204e+01   6.9477152e+01  -2.5124814e+01
   7.3127751e-01   7.0582919e+01  -2.3169517e+01
   1.9814563e+01   7.0766700e+01  -2.1913795e+01
   4.0459819e+01   7.0410031e+01  -2.0290614e+01
   6.0377575e+01   7.0560130e+01  -1.8585399e+01
   7.9289856e+01   7.0804922e+01  -1.7397122e+01
