  -8.1341180e+01  -7.3983544e+01   1.4295430e+01
  -6.1817806e+01  -7.4246196e+01   1.4893426e+01
  -4.2346292e+01  -7.4251208e+01   1.6930242e+01
  -2.2755119e+01  -7.5176306e+01   1.7980392e+01
  -3.2193778e+00  -7.4618544e+01   1.8183205e+01
   1.7672738e+01  -7.4855950e+01   1.9495244e+01
   3.7848327e+01  -7.4612765e+01   2.1214282e+01
   5.8211773e+01  -7.3751314e+01   2.1633367e+01
   7.8205312e+01  -7.4762319e+01   2.1487336e+01
  -8.1267727e+01  -5.4815651e+01   1.4797011e+01
  -6.0941797e+01  -5.4943964e+01   1.5984644e+01
  -4.1887193e+01  -5.5244568e+01   1.7432482e+01
  -2.1446028e+01  -5.5205903e+01   1.8373293e+01
  -2.5371627e+00  -5.4603910e+01   1.8894726e+01
   1.8810489e+01  -5.5815301e+01   2.0281045e+01
   3.8263512e+01  -5.4185960e+01   2.2130723e+01
   5.8718542e+01  -5.4673161e+01   2.4912197e+01
   7.7267475e+01  -5.4470137e+01   2.6945741e+01
  -8.1064815e+01  -3.5198104e+01   1.1254787e+01
  -6.2314115e+01  -3.4620819e+01   1.3089257e+01
  -4.2031231e+01  -3.4137696e+01   1.4898381e+01
  -2.2871841e+01  -3.5230851e+01   1.5426360e+01
  -2.4837159e+00  -3.5306556e+01   1.5853954e+01
   1.8710034e+01  -3.4836960e+01   1.7054135e+01
   3.7736496e+01  -3.4872670e+01   1.9127798e+01
   5.7060767e+01  -3.4789397e+01   2.2148755e+01
   7.7739202e+01  -3.4318758e+01   2.6113348e+01
  -8.0907051e+01  -1.5680185e+01   4.7624951e+00
  -6.0911207e+01  -1.5061990e+01   7.6642098e+00
  -4.1422959e+01  -1.5378163e+01   9.6091805e+00
  -2.1624601e+01  -1.5118903e+01   1.0618985e+01
  -1.8879785e+00  -1.5505460e+01   1.1923856e+01
   1.7814423e+01  -1.5222274e+01   1.3453035e+01
   3.8252142e+01  -1.5986742e+01   1.5966262e+01
   5.7961054e+01  -1.4928310e+01   1.8836173e+01
   7.7582827e+01  -1.5228106e+01   2.1838745e+01
  -7.9691530e+01   2.0038373e+00  -3.9758067e+00
  -5.9936771e+01   1.8425127e+00  -8.3930090e-01
  -4.1048415e+01   2.8410204e+00   1.5400703e+00
  -2.0891076e+01   3.5074840e+00   3.7835946e+00
  -1.8148027e+00   4.0805293e+00   6.0767267e+00
   1.9029590e+01   3.9690536e+00   8.5641650e+00
   3.8434268e+01   3.9776085e+00   1.1312638e+01
   5.8636922e+01   3.9177565e+00   1.4005005e+01
   7.9031055e+01   3.8475846e+00   1.6387505e+01
  -7.8179180e+01   1.7647705e+01  -1.4633586e+01
  -5.8755676e+01   1.8876178e+01  -1.1870079e+01
  -3.8728215e+01   1.9264675e+01  -8.8785179e+00
  -2.0598916e+01   2.0412112e+01  -6.5168171e+00
  -7.2288137e-01   2.0626082e+01  -3.3288747e+00
   2.0081842e+01   2.1205216e+01  -7.1106918e-01
   3.9830125e+01   2.2062487e+01   2.6768525e+00
   5.8975246e+01   2.2377115e+01   5.1417730e+00
   7.9893618e+01   2.2697859e+01   7.5873261e+00
  -7.6855881e+01   3.4319853e+01  -2.6777592e+01
  -5.8005807e+01   3.3840462e+01  -2.4914075e+01
  -3.6986870e+01   3.5602155e+01  -2.1479184e+01
  -1.8079392e+01   3.5512635e+01  -1.8422882e+01
   1.5729324e+00   3.5929378e+01  -1.5644018e+01
   2.0993680e+01   3.7203628e+01  -1.1951869e+01
   4.0399251e+01   3.8645184e+01  -8.9584894e+00
   6.0557858e+01   3.9304107e+01  -5.8213150e+00
   8.0944881e+01   3.9500651e+01  -1.7234218e+00
  -7.5639356e+01   4.9179860e+01  -4.0797378e+01
  -5.5749750e+01   4.9146702e+01  -3.8000749e+01
  -3.6265979e+01   4.9153494e+01  -3.4734339e+01
  -1.6064162e+01   5.0457296e+01  -3.2005677e+01
   3.6929430e+00   5.1932298e+01  -2.9231430e+01
   2.2512148e+01   5.3178288e+01  -2.5638239e+01
   4.1705464e+01   5.4360752e+01  -2.2093160e+01
   6.1565179e+01   5.5033692e+01  -1.8176975e+01
   8.1979986e+01   5.6338056e+01  -1.3534365e+01
  -7.4878081e+01   6.4346554e+01  -5.1846757e+01
  -5.3778195e+01   6.4161815e+01  -5.0760431e+01
  -3.4335046e+01   6.4913927e+01  -4.7747112e+01
  -1.4391434e+01   6.5498736e+01  -4.4849290e+01
   5.5576271e+00   6.6342248e+01  -4.2716050e+01
   2.4353349e+01   6.7323327e+01  -3.9318882e+01
   4.4214230e+01   6.9364834e+01  -3.3808332e+01
   6.3636861e+01   7.0771634e+01  -2.9288421e+01
   8.3073713e+01   7.1278038e+01  -2.6105492e+01
