  -8.1397986e+01  -7.5838674e+01   1.2711858e+01
  -6.1999690e+01  -7.5555082e+01   1.0428352e+01
  -4.2430403e+01  -7.6112053e+01   1.0574278e+01
  -2.2913849e+01  -7.7499528e+01   8.8562193e+00
  -3.3863000e+00  -7.7427349e+01   8.0394962e+00
   1.7520637e+01  -7.8183508e+01   8.8053318e+00
   3.7755540e+01  -7.8286545e+01   9.5842402e+00
   5.8136990e+01  -7.7921402e+01   9.3587960e+00
   7.7518853e+01  -7.9651426e+01   8.4631912e+00
  -8.0938565e+01  -5.5853199e+01   1.3429982e+01
  -6.0614561e+01  -5.6495537e+01   1.2570597e+01
  -4.1524411e+01  -5.7364025e+01   1.2294113e+01
  -2.1124095e+01  -5.7751021e+01   1.0743238e+01
  -2.2055218e+00  -5.7590418e+01   1.0252079e+01
   1.9148177e+01  -5.9268513e+01   1.0813414e+01
   3.8688629e+01  -5.7995046e+01   1.1835761e+01
   5.9276937e+01  -5.8915016e+01   1.3123175e+01
   7.7934113e+01  -5.9066369e+01   1.2767769e+01
  -8.0440963e+01  -3.5944621e+01   1.2514788e+01
  -6.1593862e+01  -3.5947297e+01   1.2242637e+01
  -4.1251377e+01  -3.6134104e+01   1.1217881e+01
  -2.2134320e+01  -3.7542982e+01   1.0164719e+01
  -1.7549350e+00  -3.8069449e+01   9.6472749e+00
   1.9468658e+01  -3.8052437e+01   1.0275613e+01
   3.8552569e+01  -3.8443725e+01   1.1675190e+01
   5.8050069e+01  -3.8809294e+01   1.3183310e+01
   7.9049413e+01  -3.9022947e+01   1.4770477e+01
  -8.0436294e+01  -1.5676669e+01   9.0028041e+00
  -6.0222868e+01  -1.5897065e+01   9.0715655e+00
  -4.0666701e+01  -1.6835712e+01   8.4800124e+00
  -2.0862097e+01  -1.7027657e+01   7.5840539e+00
  -1.1027029e+00  -1.7999315e+01   7.4912875e+00
   1.8649985e+01  -1.8224443e+01   8.1108159e+00
   3.9165530e+01  -1.9407182e+01   9.6322023e+00
   5.9041412e+01  -1.8779441e+01   1.1166201e+01
   7.8816464e+01  -1.9567022e+01   1.2730281e+01
  -7.9641824e+01   3.4803485e+00   4.2134897e+00
  -5.9666074e+01   2.4536130e+00   4.3849886e+00
  -4.0606643e+01   2.6199595e+00   4.0123762e+00
  -2.0315246e+01   2.4626484e+00   3.8381437e+00
  -1.0964692e+00   2.1403917e+00   3.9988072e+00
   1.9860939e+01   1.3166627e+00   4.8915705e+00
   3.9412941e+01   7.9060587e-01   6.1317978e+00
   5.9728297e+01   3.6706477e-01   7.7150115e+00
   8.0246586e+01  -2.5589372e-01   8.1772132e+00
  -7.8741324e+01   2.0431392e+01  -4.2986955e+00
  -5.9196170e+01   2.1562991e+01  -2.5309104e+00
  -3.8948324e+01   2.1096182e+01  -2.4508866e+00
  -2.0635804e+01   2.1357211e+01  -2.0646554e+00
  -5.3733230e-01   2.0409670e+01  -1.4172599e+00
   2.0425425e+01   2.0087321e+01  -7.2174311e-01
   4.0440892e+01   2.0058315e+01   5.3834042e-01
   5.9699718e+01   1.9998427e+01   1.8816533e+00
   8.0745390e+01   1.9833012e+01   2.7267953e+00
  -7.8177894e+01   3.9094172e+01  -1.3162762e+01
  -5.9301347e+01   3.9273836e+01  -1.1528292e+01
  -3.8011972e+01   3.9668275e+01  -1.1557089e+01
  -1.8914609e+01   3.8787539e+01  -1.0392280e+01
   9.2017928e-01   3.8300604e+01  -9.7187374e+00
   2.0691858e+01   3.8120144e+01  -8.5066188e+00
   4.0353261e+01   3.8562387e+01  -7.5856085e+00
   6.0716587e+01   3.8524396e+01  -6.1788339e+00
   8.1420533e+01   3.7683124e+01  -4.4179000e+00
  -7.8272938e+01   5.6797400e+01  -2.3431202e+01
  -5.8164733e+01   5.6464614e+01  -2.2196800e+01
  -3.8277159e+01   5.5764280e+01  -2.1717854e+01
  -1.7868413e+01   5.6236817e+01  -2.0997650e+01
   2.0748113e+00   5.6810164e+01  -1.9529872e+01
   2.1249636e+01   5.6542828e+01  -1.8591462e+01
   4.0761310e+01   5.6546219e+01  -1.7309383e+01
   6.0901459e+01   5.6413145e+01  -1.5175296e+01
   8.1826788e+01   5.6030698e+01  -1.3759715e+01
  -7.7151458e+01   7.2612823e+01  -3.3496571e+01
  -5.6037495e+01   7.3279099e+01  -3.3916061e+01
  -3.7350367e+01   7.2953662e+01  -3.2903479e+01
  -1.7205772e+01   7.2655087e+01  -3.2133298e+01
   2.7897838e+00   7.3163008e+01  -3.0359319e+01
   2.1865289e+01   7.3138195e+01  -2.8978419e+01
   4.2453022e+01   7.3065299e+01  -2.6713808e+01
   6.2271755e+01   7.3444164e+01  -2.4121214e+01
   8.1038017e+01   7.3358704e+01  -2.2790252e+01
