  -8.1491679e+01  -7.6478898e+01   1.0597427e+01
  -6.2012908e+01  -7.7081289e+01   9.2545603e+00
  -4.2443608e+01  -7.7647991e+01   9.1552751e+00
  -2.2911044e+01  -7.9067626e+01   7.6598631e+00
  -3.3711500e+00  -7.8896914e+01   8.0608895e+00
   1.7544651e+01  -7.9528475e+01   8.6843585e+00
   3.7785798e+01  -7.9769088e+01   9.2381438e+00
   5.8145961e+01  -7.9766243e+01   8.2127785e+00
   7.7884062e+01  -8.1786262e+01   8.6321960e+00
  -8.0820731e+01  -5.7031415e+01   8.9034483e+00
  -6.0478155e+01  -5.7803649e+01   8.5119724e+00
  -4.1389894e+01  -5.8670112e+01   8.1220054e+00
  -2.0939183e+01  -5.9054447e+01   7.5316173e+00
  -2.0147806e+00  -5.8864682e+01   7.4294512e+00
   1.9338597e+01  -6.0533442e+01   8.0295200e+00
   3.8884195e+01  -5.9347822e+01   9.0591162e+00
   5.9497381e+01  -6.0451817e+01   9.5689914e+00
   7.8155532e+01  -6.0778164e+01   9.6483252e+00
  -8.0315613e+01  -3.7113062e+01   8.2396027e+00
  -6.1479015e+01  -3.7278776e+01   7.5744828e+00
  -4.1125966e+01  -3.7454932e+01   6.7844794e+00
  -2.2009097e+01  -3.8915461e+01   5.8005490e+00
  -1.6252697e+00  -3.9429987e+01   5.4857653e+00
   1.9600972e+01  -3.9405400e+01   6.0168541e+00
   3.8698708e+01  -3.9886783e+01   7.1797617e+00
   5.8218280e+01  -4.0388227e+01   8.3179288e+00
   7.9253723e+01  -4.0636827e+01   9.3106626e+00
  -8.0261990e+01  -1.6779885e+01   5.1278519e+00
  -6.0050315e+01  -1.7132099e+01   5.1214637e+00
  -4.0504789e+01  -1.8122714e+01   4.3055319e+00
  -2.0699602e+01  -1.8376193e+01   3.4382076e+00
  -9.4252702e-01  -1.9373508e+01   3.2151975e+00
   1.8809995e+01  -1.9576784e+01   3.8474579e+00
   3.9328065e+01  -2.0837016e+01   5.2693139e+00
   5.9199377e+01  -2.0306805e+01   6.8965056e+00
   7.8991701e+01  -2.1105142e+01   8.2178161e+00
  -7.9462737e+01   2.5371754e+00   1.0324369e+00
  -5.9552071e+01   1.4225549e+00   1.3138402e+00
  -4.0494488e+01   1.5363865e+00   8.4053538e-01
  -2.0203132e+01   1.2989240e+00   8.2168645e-01
  -9.8546961e-01   9.0880230e-01   6.7919477e-01
   1.9973834e+01   9.5212925e-02   1.5360185e+00
   3.9521303e+01  -4.8404399e-01   2.8231232e+00
   5.9833860e+01  -1.0092730e+00   4.4117742e+00
   8.0296216e+01  -1.3720029e+00   6.0737988e+00
  -7.8616265e+01   2.0830415e+01  -3.9921978e+00
  -5.9155189e+01   2.1111320e+01  -3.7273728e+00
  -3.8913659e+01   2.0702108e+01  -3.1682926e+00
  -2.0601767e+01   2.0779683e+01  -2.6842226e+00
  -5.0076855e-01   1.9717280e+01  -2.3898716e+00
   2.0460536e+01   1.9432212e+01  -1.6366930e+00
   4.0482164e+01   1.9307912e+01  -4.8494078e-01
   5.9741553e+01   1.9156916e+01   8.4307944e-01
   8.0754367e+01   1.9099007e+01   2.2991687e+00
  -7.7632692e+01   4.0612757e+01  -9.8981280e+00
  -5.9178091e+01   4.0041608e+01  -9.7507930e+00
  -3.8024337e+01   4.0573825e+01  -8.9168831e+00
  -1.8961614e+01   3.9524267e+01  -7.3830153e+00
   8.7768151e-01   3.8809046e+01  -7.3626735e+00
   2.0645610e+01   3.8624851e+01  -6.0913885e+00
   4.0309634e+01   3.9015719e+01  -5.2036980e+00
   6.0697239e+01   3.8709354e+01  -4.2565142e+00
   8.1382604e+01   3.7441953e+01  -3.4689040e+00
  -7.8326083e+01   6.0051729e+01  -1.6262071e+01
  -5.8206596e+01   5.8985563e+01  -1.6471631e+01
  -3.8336799e+01   5.8472246e+01  -1.5393126e+01
  -1.7983916e+01   5.8939179e+01  -1.3719497e+01
   2.0211902e+00   5.8931619e+01  -1.3614877e+01
   2.1173774e+01   5.8844950e+01  -1.2274344e+01
   4.0655607e+01   5.8833861e+01  -1.0598869e+01
   6.0872341e+01   5.8167440e+01  -9.5804460e+00
   8.1819440e+01   5.7308232e+01  -8.8733596e+00
  -7.8155707e+01   7.7980361e+01  -2.1850640e+01
  -5.7473232e+01   7.8794121e+01  -2.2099805e+01
  -3.7852754e+01   7.7841256e+01  -2.1664359e+01
  -1.7766773e+01   7.7644781e+01  -1.9931791e+01
   2.3113942e+00   7.7358477e+01  -1.9820135e+01
   2.1387382e+01   7.7148593e+01  -1.8461807e+01
   4.2028370e+01   7.6699868e+01  -1.6807497e+01
   6.1975757e+01   7.6114593e+01  -1.5621529e+01
   8.2242353e+01   7.5472166e+01  -1.4293541e+01
