  -7.4786425e+01  -6.8961063e+01  -3.4321990e+01
  -5.7306316e+01  -6.7963999e+01  -3.1660292e+01
  -3.7768296e+01  -6.8648668e+01  -3.0618408e+01
  -1.8132902e+01  -6.8301174e+01  -3.0297105e+01
   1.2323008e+00  -6.8375727e+01  -2.7655009e+01
   2.2101575e+01  -6.8322351e+01  -2.6072652e+01
   4.2192938e+01  -6.8955091e+01  -2.3622066e+01
   6.2289445e+01  -6.9381312e+01  -2.0225533e+01
   8.2213840e+01  -7.0308470e+01  -1.8509748e+01
  -7.7874460e+01  -5.5054969e+01  -2.0278110e+01
  -5.7562026e+01  -5.4913610e+01  -1.8879764e+01
  -3.8568349e+01  -5.5530112e+01  -1.6848831e+01
  -1.8239299e+01  -5.5817836e+01  -1.4530464e+01
   5.8968109e-01  -5.4782518e+01  -1.2925136e+01
   2.1880330e+01  -5.6496052e+01  -1.1227012e+01
   4.1281790e+01  -5.5555392e+01  -8.5447187e+00
   6.1767707e+01  -5.6159664e+01  -6.0259367e+00
   8.0312384e+01  -5.4671756e+01  -4.5697336e+00
  -7.9058748e+01  -3.9288944e+01  -8.1345280e+00
  -6.0394993e+01  -3.8557719e+01  -7.0001142e+00
  -4.0139239e+01  -3.8303731e+01  -4.8690055e+00
  -2.1117412e+01  -3.9686891e+01  -2.6751716e+00
  -7.7535619e-01  -3.9727814e+01  -1.2387367e+00
   2.0360366e+01  -3.9496403e+01   7.7713164e-01
   3.9401446e+01  -3.9673770e+01   2.7041406e+00
   5.8776191e+01  -3.9828036e+01   5.3792214e+00
   7.9608438e+01  -3.9248287e+01   8.4154327e+00
  -8.0484283e+01  -2.0797944e+01   7.6348854e-01
  -6.0295987e+01  -2.0267061e+01   1.6504598e+00
  -4.0808520e+01  -2.0824901e+01   3.5483866e+00
  -2.1044183e+01  -2.0662678e+01   5.0997091e+00
  -1.2923791e+00  -2.1168617e+01   6.0980291e+00
   1.8401519e+01  -2.1014474e+01   7.7502378e+00
   3.8846860e+01  -2.2017609e+01   1.0113048e+01
   5.8513728e+01  -2.1320607e+01   1.3357485e+01
   7.8052482e+01  -2.1667227e+01   1.6855516e+01
  -8.0465682e+01  -1.4870353e+00   4.9645005e+00
  -6.0507261e+01  -1.8838014e+00   6.2365866e+00
  -4.1484809e+01  -1.2318364e+00   7.3088331e+00
  -2.1222207e+01  -1.0860005e+00   8.4049919e+00
  -2.0069031e+00  -9.3316459e-01   8.8946695e+00
   1.8923443e+01  -1.3646179e+00   1.0451258e+01
   3.8365182e+01  -1.7131913e+00   1.2899315e+01
   5.8472318e+01  -2.0640167e+00   1.6212873e+01
   7.8632749e+01  -2.0511347e+00   2.0106295e+01
  -8.0220298e+01   1.7495253e+01   5.4320530e+00
  -6.0621038e+01   1.8440178e+01   6.6130589e+00
  -4.0454123e+01   1.8350290e+01   8.4804191e+00
  -2.2157758e+01   1.8668362e+01   9.3216053e+00
  -2.0401321e+00   1.8108477e+01   9.8044626e+00
   1.8896347e+01   1.8226266e+01   1.1098599e+01
   3.8827301e+01   1.8355967e+01   1.3322979e+01
   5.7904736e+01   1.8407726e+01   1.6282587e+01
   7.8569774e+01   1.8768566e+01   2.0343117e+01
  -7.9892467e+01   3.7952838e+01   2.5049025e+00
  -6.0949718e+01   3.7962652e+01   2.9520624e+00
  -3.9758122e+01   3.8838341e+01   5.5687732e+00
  -2.0647393e+01   3.7756418e+01   6.2405126e+00
  -8.1844400e-01   3.7674654e+01   7.1974358e+00
   1.8884716e+01   3.7842261e+01   9.2415732e+00
   3.8478263e+01   3.8501836e+01   1.1050574e+01
   5.8683219e+01   3.8486788e+01   1.3949717e+01
   7.9261801e+01   3.7671934e+01   1.6834160e+01
  -7.9734295e+01   5.6612026e+01  -5.9012784e+00
  -5.9662812e+01   5.6893801e+01  -4.1604127e+00
  -4.0081970e+01   5.6411192e+01  -1.7444231e+00
  -1.9701792e+01   5.7032516e+01  -5.1104683e-01
   2.7984811e-01   5.7584912e+01   2.9156858e-01
   1.9420320e+01   5.7488542e+01   1.7945815e+00
   3.8832259e+01   5.7371805e+01   4.1423829e+00
   5.8933575e+01   5.6880762e+01   6.5700572e+00
   7.9801582e+01   5.6573932e+01   8.6799551e+00
  -7.8913101e+01   7.2007908e+01  -1.6624590e+01
  -5.7981308e+01   7.4054486e+01  -1.5442103e+01
  -3.8613490e+01   7.3417547e+01  -1.3149663e+01
  -1.8640082e+01   7.3924076e+01  -1.0881646e+01
   1.4389352e+00   7.4057348e+01  -1.0675382e+01
   2.0440873e+01   7.3801228e+01  -8.5205815e+00
   4.0970543e+01   7.3467668e+01  -5.7984664e+00
   6.0819096e+01   7.3377852e+01  -3.4164200e+00
   8.1029912e+01   7.2228718e+01  -1.6518784e+00
