  -7.6454554e+01  -6.7033335e+01  -3.8507109e+01
  -5.7279331e+01  -6.6148696e+01  -3.6731139e+01
  -3.7744262e+01  -6.6233749e+01  -3.5441821e+01
  -1.8134210e+01  -6.6520261e+01  -3.4375780e+01
   1.2644211e+00  -6.5960190e+01  -3.2056976e+01
   2.2094602e+01  -6.6519278e+01  -3.0044690e+01
   4.2296723e+01  -6.6384790e+01  -2.8657311e+01
   6.2455756e+01  -6.6538387e+01  -2.5627873e+01
   8.2363959e+01  -6.7504040e+01  -2.3752770e+01
  -7.8014265e+01  -5.3344674e+01  -2.4004218e+01
  -5.7677698e+01  -5.3290551e+01  -2.3008464e+01
  -3.8659690e+01  -5.3688335e+01  -2.1158687e+01
  -1.8411266e+01  -5.4438885e+01  -1.8301092e+01
   4.0445775e-01  -5.3822319e+01  -1.6360001e+01
   2.1769543e+01  -5.5171750e+01  -1.5452400e+01
   4.1206716e+01  -5.4010825e+01  -1.3140533e+01
   6.1139059e+01  -5.6042485e+01  -9.3547334e+00
   7.9627663e+01  -5.5045263e+01  -7.0274017e+00
  -7.9130453e+01  -3.7488471e+01  -1.2436192e+01
  -6.0484508e+01  -3.7852916e+01  -9.7006474e+00
  -4.0292721e+01  -3.7897709e+01  -7.0189616e+00
  -2.1215887e+01  -3.9184889e+01  -5.2945641e+00
  -8.8385851e-01  -3.9538875e+01  -3.7623952e+00
   2.0258293e+01  -3.9374802e+01  -1.8082945e+00
   3.9276483e+01  -3.9914818e+01   2.7122420e-01
   5.8653113e+01  -4.0261593e+01   2.9144304e+00
   7.9405244e+01  -4.0079798e+01   6.4995660e+00
  -8.0404896e+01  -2.0061112e+01  -1.5832266e+00
  -6.0454915e+01  -2.0292317e+01   5.7415691e-01
  -4.0995305e+01  -2.1083397e+01   2.6651926e+00
  -2.1201281e+01  -2.0970770e+01   3.7813729e+00
  -1.4955334e+00  -2.1798202e+01   5.3257947e+00
   1.8176070e+01  -2.1919193e+01   7.2275238e+00
   3.8632056e+01  -2.3093452e+01   9.4126606e+00
   5.8320921e+01  -2.2563513e+01   1.2553627e+01
   7.7809531e+01  -2.3211849e+01   1.6280960e+01
  -8.0474359e+01  -1.1219715e+00   4.0616106e+00
  -6.0609133e+01  -2.1839379e+00   6.1494801e+00
  -4.1592852e+01  -1.7013778e+00   7.4051060e+00
  -2.1330882e+01  -1.7438484e+00   8.5216415e+00
  -2.1431175e+00  -1.8657886e+00   9.6643930e+00
   1.8783137e+01  -2.4910018e+00   1.1210186e+01
   3.8230067e+01  -3.0256307e+00   1.3582267e+01
   5.8302567e+01  -3.6264274e+00   1.7065575e+01
   7.8274596e+01  -4.1085895e+00   2.1807672e+01
  -8.0126582e+01   1.7717086e+01   6.4227613e+00
  -6.0674902e+01   1.8061536e+01   7.9757558e+00
  -4.0448675e+01   1.7844389e+01   9.0014980e+00
  -2.2167279e+01   1.7968285e+01   1.0159483e+01
  -2.0835572e+00   1.7130732e+01   1.1258631e+01
   1.8845354e+01   1.7055848e+01   1.2672814e+01
   3.8738818e+01   1.6991096e+01   1.5213178e+01
   5.7787757e+01   1.6806752e+01   1.8345979e+01
   7.8489449e+01   1.6707145e+01   2.2230815e+01
  -7.9867363e+01   3.8063590e+01   3.0609475e+00
  -6.0992758e+01   3.7648286e+01   4.6748275e+00
  -3.9767479e+01   3.8444751e+01   7.0308693e+00
  -2.0722266e+01   3.7251202e+01   8.6731329e+00
  -9.4769030e-01   3.6855467e+01   1.0381687e+01
   1.8777412e+01   3.6753924e+01   1.2206820e+01
   3.8328550e+01   3.7177418e+01   1.4484598e+01
   5.8581729e+01   3.6861773e+01   1.7005428e+01
   7.9017990e+01   3.5879807e+01   2.0727931e+01
  -7.9393540e+01   5.7357189e+01  -3.7497953e+00
  -5.9362247e+01   5.6833853e+01  -1.6408070e+00
  -3.9557213e+01   5.6238119e+01   2.6738933e-01
  -1.9257768e+01   5.6381520e+01   1.6068866e+00
   6.2797000e-01   5.6825446e+01   3.7459614e+00
   1.9741757e+01   5.6779408e+01   5.5589791e+00
   3.9189398e+01   5.6394977e+01   7.5566332e+00
   5.9265020e+01   5.5469905e+01   1.0068858e+01
   7.9969276e+01   5.5097171e+01   1.3417647e+01
  -7.8284228e+01   7.4641664e+01  -1.1010189e+01
  -5.7171937e+01   7.5304257e+01  -1.0508718e+01
  -3.8333223e+01   7.4014090e+01  -9.9291149e+00
  -1.8392823e+01   7.4265285e+01  -6.9619034e+00
   1.6589701e+00   7.3991712e+01  -5.9236254e+00
   2.0612121e+01   7.3832688e+01  -3.3672272e+00
   4.1129598e+01   7.2981211e+01  -6.6599359e-01
   6.0949469e+01   7.1551478e+01   1.5193812e+00
   8.0709654e+01   7.0951822e+01   1.9933582e+00
