  -8.0943611e+01  -7.7932240e+01  -2.7965173e+00
  -6.1749764e+01  -7.7754006e+01   8.3020750e-01
  -4.2300839e+01  -7.8359125e+01   2.9892925e+00
  -2.2788121e+01  -7.9646607e+01   4.8247595e+00
  -3.3139428e+00  -7.9378749e+01   6.4624523e+00
   1.7562533e+01  -7.9986844e+01   7.8981703e+00
   3.7727699e+01  -8.0247171e+01   9.7330897e+00
   5.8032544e+01  -8.0303400e+01   1.1549068e+01
   7.7901466e+01  -8.1750318e+01   1.3528318e+01
  -8.0401957e+01  -5.8478752e+01  -3.5893138e+00
  -6.0125909e+01  -5.8891209e+01  -1.7776471e+00
  -4.1253188e+01  -5.9438509e+01   1.1863695e+00
  -2.0862696e+01  -5.9723003e+01   2.8818789e+00
  -1.9811558e+00  -5.9469089e+01   4.1477497e+00
   1.9336133e+01  -6.1125314e+01   5.5411968e+00
   3.8806000e+01  -5.9941500e+01   7.5459483e+00
   5.9227927e+01  -6.0981444e+01   1.0277125e+01
   7.7795905e+01  -6.1262382e+01   1.2118511e+01
  -7.9930146e+01  -3.8641303e+01  -5.5101653e+00
  -6.1183040e+01  -3.8422060e+01  -3.5645957e+00
  -4.0996161e+01  -3.8278849e+01  -8.4960896e-01
  -2.1907777e+01  -3.9627646e+01   6.8996430e-01
  -1.5533381e+00  -4.0073010e+01   1.8573087e+00
   1.9624458e+01  -4.0011796e+01   3.3847969e+00
   3.8664676e+01  -4.0523673e+01   5.2598021e+00
   5.8052652e+01  -4.1026653e+01   7.7923882e+00
   7.9013353e+01  -4.1256047e+01   9.8255036e+00
  -7.9836363e+01  -1.8165606e+01  -7.4751013e+00
  -5.9749867e+01  -1.8193056e+01  -5.2018194e+00
  -4.0354324e+01  -1.8863224e+01  -2.5488108e+00
  -2.0579651e+01  -1.9034997e+01  -1.1364621e+00
  -8.5939922e-01  -1.9961653e+01   1.4390640e-01
   1.8851950e+01  -2.0146930e+01   1.5692333e+00
   3.9308743e+01  -2.1444491e+01   3.6756614e+00
   5.9108030e+01  -2.0975615e+01   6.0349640e+00
   7.8877335e+01  -2.1814500e+01   7.6443512e+00
  -7.9043158e+01   1.5382614e+00  -8.7745143e+00
  -5.9203459e+01   6.9833383e-01  -6.3672254e+00
  -4.0269200e+01   1.0324618e+00  -4.1739092e+00
  -2.0054880e+01   7.7166897e-01  -2.4106303e+00
  -8.7027807e-01   4.3040976e-01  -1.2592743e+00
   2.0054163e+01  -3.8794571e-01   2.1942818e-01
   3.9548466e+01  -1.0031217e+00   2.1402071e+00
   5.9816704e+01  -1.6083156e+00   4.1973775e+00
   8.0265528e+01  -2.0922066e+00   5.9899556e+00
  -7.8274508e+01   2.0429514e+01  -1.0545336e+01
  -5.8861601e+01   2.0991357e+01  -7.5052646e+00
  -3.8738864e+01   2.0587690e+01  -5.2442787e+00
  -2.0485239e+01   2.0522299e+01  -3.7058951e+00
  -4.3160834e-01   1.9460582e+01  -2.2951649e+00
   2.0509437e+01   1.9163342e+01  -1.1081104e+00
   4.0470304e+01   1.9022322e+01   8.2876128e-01
   5.9693150e+01   1.8808865e+01   2.6027786e+00
   8.0692058e+01   1.8650942e+01   4.2407134e+00
  -7.7981565e+01   4.1061190e+01  -1.1743936e+01
  -5.9252512e+01   4.0805163e+01  -8.8830250e+00
  -3.8041713e+01   4.1253880e+01  -6.3142951e+00
  -1.8998490e+01   3.9825646e+01  -4.8454325e+00
   7.9066431e-01   3.9168259e+01  -3.4077850e+00
   2.0524562e+01   3.8857986e+01  -1.7054058e+00
   4.0160939e+01   3.9262855e+01  -3.4035074e-01
   6.0517077e+01   3.8968065e+01   1.1382549e+00
   8.1240274e+01   3.7795211e+01   2.4171408e+00
  -7.8034608e+01   6.1495303e+01  -1.2883399e+01
  -5.8316291e+01   6.1014560e+01  -1.0038695e+01
  -3.8499377e+01   6.0174796e+01  -8.3593461e+00
  -1.8176489e+01   6.0203388e+01  -6.3006349e+00
   1.7406637e+00   6.0224860e+01  -4.4239759e+00
   2.0878836e+01   6.0002515e+01  -2.9051184e+00
   4.0407601e+01   5.9772373e+01  -1.9441136e+00
   6.0621344e+01   5.9032286e+01  -9.6131698e-01
   8.1502284e+01   5.8331478e+01   9.1344985e-01
  -7.7702878e+01   8.0190961e+01  -1.4632490e+01
  -5.7163313e+01   8.1527078e+01  -1.1619942e+01
  -3.7570561e+01   8.0625892e+01  -9.8896887e+00
  -1.7577500e+01   8.0015435e+01  -7.3614771e+00
   2.3558016e+00   8.0004668e+01  -5.5813511e+00
   2.1328903e+01   7.9686528e+01  -4.6282738e+00
   4.2008196e+01   7.8948996e+01  -3.7274976e+00
   6.1961118e+01   7.8285185e+01  -2.6846337e+00
   8.2243405e+01   7.7516564e+01  -1.7103577e+00
