  -7.9638602e+01  -6.4937906e+01  -2.8770480e+01
  -6.0156159e+01  -6.4529283e+01  -2.7408095e+01
  -4.0668797e+01  -6.6264274e+01  -2.6686266e+01
  -2.1151400e+01  -6.6575769e+01  -2.7158265e+01
  -1.6648299e+00  -6.6940272e+01  -2.5696023e+01
   1.9265792e+01  -6.7130106e+01  -2.5333645e+01
   3.9501829e+01  -6.7357995e+01  -2.4612888e+01
   5.9227922e+01  -6.7617351e+01  -2.2077618e+01
   7.9233201e+01  -6.7816130e+01  -2.1346657e+01
  -8.0351040e+01  -5.3160886e+01  -1.2616839e+01
  -6.0002222e+01  -5.3373710e+01  -1.3288182e+01
  -4.0922459e+01  -5.4084238e+01  -1.2438296e+01
  -2.0489985e+01  -5.4612776e+01  -1.1457207e+01
  -1.6237828e+00  -5.4981350e+01  -1.0004614e+01
   1.9771189e+01  -5.6121432e+01  -1.0263374e+01
   3.9207970e+01  -5.6124122e+01  -7.6734438e+00
   5.9759985e+01  -5.6966783e+01  -5.8604962e+00
   7.8284836e+01  -5.6459578e+01  -3.6668463e+00
  -8.0564658e+01  -3.6984727e+01  -1.8738560e+00
  -6.2061462e+01  -3.6757143e+01  -1.7436215e+00
  -4.1768868e+01  -3.7361555e+01  -8.6211525e-02
  -2.2653741e+01  -3.9068216e+01   4.1894691e-01
  -2.3094169e+00  -3.9818675e+01   1.6061893e+00
   1.8886897e+01  -4.0068797e+01   2.8267361e+00
   3.7994065e+01  -4.0398865e+01   3.8825577e+00
   5.7391973e+01  -4.1079847e+01   6.2946114e+00
   7.8108088e+01  -4.1659964e+01   1.0042042e+01
  -8.1223650e+01  -1.7935802e+01   5.8610066e+00
  -6.1030944e+01  -1.8449193e+01   6.6528056e+00
  -4.1472583e+01  -1.9456726e+01   7.0134696e+00
  -2.1650846e+01  -1.9640208e+01   7.3698038e+00
  -1.9257384e+00  -2.0836542e+01   8.3053874e+00
   1.7786299e+01  -2.1338000e+01   9.6422970e+00
   3.8218346e+01  -2.2945962e+01   1.1774666e+01
   5.7941690e+01  -2.2784771e+01   1.4734666e+01
   7.7469958e+01  -2.3862592e+01   1.8141180e+01
  -8.0336787e+01   1.6462598e+00   8.3742511e+00
  -6.0405941e+01   2.8931626e-01   9.3912485e+00
  -4.1346875e+01   4.0757723e-01   8.9832814e+00
  -2.1059352e+01   1.0813250e-01   9.3334997e+00
  -1.8590088e+00  -4.7034624e-01   1.0042877e+01
   1.9061551e+01  -1.6115675e+00   1.1352946e+01
   3.8512205e+01  -2.5267786e+00   1.3573346e+01
   5.8666896e+01  -3.4089514e+00   1.6473315e+01
   7.8877050e+01  -4.1105584e+00   2.0031312e+01
  -7.9379707e+01   2.0546667e+01   6.8043283e+00
  -5.9801141e+01   2.0563309e+01   8.0428202e+00
  -3.9561425e+01   1.9964090e+01   8.4837332e+00
  -2.1243787e+01   1.9892901e+01   8.6412542e+00
  -1.1704374e+00   1.8569750e+01   9.3998019e+00
   1.9753157e+01   1.7969034e+01   1.0766241e+01
   3.9715155e+01   1.7504940e+01   1.2639967e+01
   5.8861629e+01   1.7021490e+01   1.5066754e+01
   7.9781718e+01   1.6532557e+01   1.7469410e+01
  -7.8221422e+01   3.9916806e+01  -3.1215892e-01
  -5.9439730e+01   3.9535516e+01   2.1638193e+00
  -3.8085859e+01   3.9859559e+01   2.9415889e+00
  -1.8997420e+01   3.8535625e+01   3.7903897e+00
   8.1898669e-01   3.7648246e+01   4.5854925e+00
   2.0563816e+01   3.7091777e+01   6.0865504e+00
   4.0162489e+01   3.7227648e+01   7.9542014e+00
   6.0489100e+01   3.6442341e+01   9.6446781e+00
   8.0787873e+01   3.4951059e+01   1.2003566e+01
  -7.7528613e+01   5.7581051e+01  -1.0435961e+01
  -5.7533983e+01   5.6944279e+01  -8.0310294e+00
  -3.7670855e+01   5.6012030e+01  -7.1241105e+00
  -1.7290584e+01   5.6495179e+01  -5.8318137e+00
   2.7081270e+00   5.6042997e+01  -5.5820975e+00
   2.1831095e+01   5.5413396e+01  -3.9878312e+00
   4.1280123e+01   5.4927353e+01  -2.0261330e+00
   6.1394146e+01   5.4274356e+01   2.5362232e-01
   8.2245901e+01   5.2960180e+01   2.1236010e+00
  -7.6551456e+01   7.2812518e+01  -2.1378744e+01
  -5.5486811e+01   7.3626770e+01  -1.9951460e+01
  -3.5843893e+01   7.2647846e+01  -1.9013762e+01
  -1.5726857e+01   7.2316066e+01  -1.7716915e+01
   4.3307396e+00   7.1380009e+01  -1.7926402e+01
   2.3353368e+01   7.0757070e+01  -1.6046518e+01
   4.3847454e+01   7.0576723e+01  -1.3055127e+01
   6.3723828e+01   6.9419887e+01  -1.1255471e+01
   8.3901507e+01   6.9039417e+01  -8.8831955e+00
