  -8.0320793e+01  -6.8505846e+01  -1.4271443e+01
  -6.0800136e+01  -6.7860723e+01  -1.4612695e+01
  -4.1256594e+01  -6.8911792e+01  -1.4129212e+01
  -2.1704439e+01  -7.0599415e+01  -1.3330556e+01
  -2.1763462e+00  -6.9825828e+01  -1.3101301e+01
   1.8750165e+01  -7.0327792e+01  -1.2805571e+01
   3.8983690e+01  -7.0334131e+01  -1.1985182e+01
   5.9320276e+01  -7.0198474e+01  -1.0573600e+01
   7.8735084e+01  -7.0205105e+01  -1.0080654e+01
  -8.1023787e+01  -5.4233417e+01  -2.8488954e+00
  -6.0676177e+01  -5.4702551e+01  -2.2787341e+00
  -4.1574569e+01  -5.5184476e+01  -1.8776847e+00
  -2.1149879e+01  -5.5780030e+01  -7.7985121e-01
  -2.2350864e+00  -5.5505647e+01  -2.0124514e-01
   1.9132492e+01  -5.7090445e+01  -3.8207490e-02
   3.8630870e+01  -5.5860558e+01   1.6341656e+00
   5.9194634e+01  -5.6657362e+01   3.3309026e+00
   7.7709851e+01  -5.6249943e+01   5.6244006e+00
  -8.0947677e+01  -3.6651050e+01   6.5474366e+00
  -6.2338764e+01  -3.6737268e+01   7.6097009e+00
  -4.1978776e+01  -3.6677542e+01   8.2172039e+00
  -2.2830232e+01  -3.8033552e+01   8.4418703e+00
  -2.4523874e+00  -3.8503674e+01   9.0636868e+00
   1.8763388e+01  -3.8518739e+01   9.9161207e+00
   3.7830049e+01  -3.9003546e+01   1.1508288e+01
   5.7272208e+01  -3.9435488e+01   1.3600286e+01
   7.8041756e+01  -3.9648091e+01   1.7081358e+01
  -8.1262130e+01  -1.6312248e+01   9.6065528e+00
  -6.1088371e+01  -1.6688127e+01   1.0837016e+01
  -4.1512075e+01  -1.7345593e+01   1.0731893e+01
  -2.1695371e+01  -1.7546600e+01   1.1297358e+01
  -1.9366784e+00  -1.8478245e+01   1.1632767e+01
   1.7788790e+01  -1.8792572e+01   1.2820332e+01
   3.8243614e+01  -2.0155845e+01   1.4904258e+01
   5.7970829e+01  -1.9737446e+01   1.7812835e+01
   7.7542511e+01  -2.0497726e+01   2.1051741e+01
  -8.0344634e+01   3.3788332e+00   8.1995807e+00
  -6.0426604e+01   2.1484701e+00   8.8963691e+00
  -4.1379382e+01   2.5818218e+00   9.5626767e+00
  -2.1094026e+01   2.2566245e+00   1.0003685e+01
  -1.8852694e+00   1.9381709e+00   1.0646567e+01
   1.9034695e+01   9.9722030e-01   1.2115657e+01
   3.8503286e+01   3.3296150e-01   1.4267031e+01
   5.8701469e+01  -3.0457968e-01   1.6917805e+01
   7.9023549e+01  -6.9872856e-01   1.9826349e+01
  -7.9182079e+01   2.0834408e+01   8.1328124e-01
  -5.9676641e+01   2.1624561e+01   3.1224400e+00
  -3.9466743e+01   2.1448893e+01   4.4372478e+00
  -2.1167792e+01   2.1482831e+01   5.2816283e+00
  -1.1436373e+00   2.0670773e+01   7.1893188e+00
   1.9777539e+01   2.0278243e+01   8.6641596e+00
   3.9730716e+01   1.9999568e+01   1.0664322e+01
   5.8915701e+01   1.9757044e+01   1.2806283e+01
   7.9854632e+01   1.9557874e+01   1.5082998e+01
  -7.7538933e+01   3.8502891e+01  -9.7845149e+00
  -5.8699395e+01   3.8200633e+01  -7.7824564e+00
  -3.7740654e+01   3.9079975e+01  -6.2813301e+00
  -1.8700677e+01   3.8066449e+01  -4.4664558e+00
   9.8736424e-01   3.8095546e+01  -1.9189474e+00
   2.0682701e+01   3.8050861e+01   2.0539457e-01
   4.0256167e+01   3.8456829e+01   2.2860697e+00
   6.0559186e+01   3.8062191e+01   4.3542072e+00
   8.1143843e+01   3.7024367e+01   7.1213051e+00
  -7.6818152e+01   5.4459548e+01  -2.2579815e+01
  -5.6804096e+01   5.3938504e+01  -2.0406206e+01
  -3.6972402e+01   5.3427148e+01  -1.8769775e+01
  -1.6598494e+01   5.3804408e+01  -1.7348348e+01
   3.3025334e+00   5.4208149e+01  -1.5348005e+01
   2.2376098e+01   5.4308962e+01  -1.3153704e+01
   4.1647859e+01   5.4966558e+01  -9.9108687e+00
   6.1661993e+01   5.4738335e+01  -6.8157115e+00
   8.2537087e+01   5.3476240e+01  -5.1857147e+00
  -7.5484028e+01   6.7252347e+01  -3.6264162e+01
  -5.4569823e+01   6.7856693e+01  -3.5435680e+01
  -3.4949816e+01   6.7058255e+01  -3.3986676e+01
  -1.4887740e+01   6.6519778e+01  -3.2494107e+01
   4.9921807e+00   6.6870924e+01  -3.0060375e+01
   2.3765815e+01   6.8020490e+01  -2.6594604e+01
   4.4084825e+01   6.8595991e+01  -2.2620297e+01
   6.3607852e+01   6.9575879e+01  -1.8432392e+01
   8.1895165e+01   7.0183731e+01  -1.5328704e+01
