  -7.9605488e+01  -5.6487875e+01  -4.4604071e+01
  -6.0083526e+01  -5.7154770e+01  -4.4411840e+01
  -4.0554918e+01  -5.8530883e+01  -4.4243642e+01
  -2.0924814e+01  -5.9152195e+01  -4.4029886e+01
  -1.5004239e+00  -5.9941110e+01  -4.2012937e+01
   1.9366860e+01  -6.1140242e+01  -4.0839544e+01
   3.9574093e+01  -6.2072006e+01  -3.9907796e+01
   5.9785570e+01  -6.3176390e+01  -3.7486182e+01
   7.9383779e+01  -6.5402818e+01  -3.6323627e+01
  -8.0175448e+01  -4.6079033e+01  -2.9262661e+01
  -5.9868957e+01  -4.7566732e+01  -2.9203300e+01
  -4.0803684e+01  -4.8377958e+01  -2.8144138e+01
  -2.0404573e+01  -4.9106897e+01  -2.6704426e+01
  -1.5693723e+00  -4.9775709e+01  -2.4981820e+01
   1.9744257e+01  -5.1972839e+01  -2.4866137e+01
   3.9257296e+01  -5.1935382e+01  -2.2933241e+01
   5.9763746e+01  -5.3319086e+01  -2.0945006e+01
   7.8153975e+01  -5.4848695e+01  -1.8170267e+01
  -8.0186360e+01  -3.2662295e+01  -1.6079202e+01
  -6.2038486e+01  -3.3828199e+01  -1.4042738e+01
  -4.1835464e+01  -3.5067090e+01  -1.1761344e+01
  -2.2754374e+01  -3.7062486e+01  -1.1063946e+01
  -2.4114910e+00  -3.8219194e+01  -1.0231260e+01
   1.8776716e+01  -3.8901394e+01  -9.0352201e+00
   3.7777916e+01  -4.0347296e+01  -7.2543981e+00
   5.7158360e+01  -4.1468312e+01  -4.8664496e+00
   7.7967526e+01  -4.2866950e+01  -1.9407719e+00
  -8.1301855e+01  -1.7227073e+01  -2.5280574e+00
  -6.1270849e+01  -1.8597440e+01  -5.7493288e-01
  -4.1778809e+01  -2.0168295e+01   5.5088385e-01
  -2.2002647e+01  -2.1141729e+01   1.5597303e+00
  -2.2833447e+00  -2.2627730e+01   2.1318205e+00
   1.7413758e+01  -2.3670358e+01   3.3728884e+00
   3.7796136e+01  -2.5942313e+01   5.3723841e+00
   5.7426673e+01  -2.6676526e+01   8.8221423e+00
   7.7119935e+01  -2.8112957e+01   1.0879172e+01
  -8.0506795e+01   5.1838451e-01   6.1337372e+00
  -6.0634360e+01  -1.4034792e+00   7.3613148e+00
  -4.1598343e+01  -1.8760086e+00   8.2752149e+00
  -2.1386005e+01  -3.0274379e+00   9.6649815e+00
  -2.2065666e+00  -4.0552820e+00   1.0429009e+01
   1.8673034e+01  -5.7487262e+00   1.1793938e+01
   3.8097088e+01  -7.2983788e+00   1.3891646e+01
   5.8190841e+01  -8.9663214e+00   1.6868007e+01
   7.8454858e+01  -1.0408687e+01   1.9849800e+01
  -7.9482611e+01   1.8730686e+01   1.1412866e+01
  -5.9834138e+01   1.8393729e+01   1.1905433e+01
  -3.9629915e+01   1.7179619e+01   1.2622965e+01
  -2.1328539e+01   1.6486619e+01   1.3003926e+01
  -1.2861731e+00   1.4711427e+01   1.3650262e+01
   1.9616708e+01   1.3568004e+01   1.4987041e+01
   3.9497457e+01   1.2437807e+01   1.7371590e+01
   5.8564867e+01   1.1245186e+01   2.0150435e+01
   7.9337750e+01   1.0082228e+01   2.3436287e+01
  -7.8428914e+01   3.9364254e+01   1.1990843e+01
  -5.9534972e+01   3.8233660e+01   1.2867499e+01
  -3.8212128e+01   3.7774965e+01   1.4217935e+01
  -1.9171998e+01   3.5707955e+01   1.4424409e+01
   6.2037726e-01   3.4340312e+01   1.5132262e+01
   2.0332426e+01   3.3182448e+01   1.6718315e+01
   3.9892166e+01   3.2653050e+01   1.8897974e+01
   6.0050334e+01   3.1349675e+01   2.1829697e+01
   8.0623487e+01   2.9268524e+01   2.4037914e+01
  -7.6383137e+01   5.9355582e+01   8.1158183e+00
  -5.7349834e+01   5.8030873e+01   9.1355651e+00
  -3.7650687e+01   5.6626036e+01   1.1626653e+01
  -1.7237777e+01   5.5869727e+01   1.1630227e+01
   2.7504485e+00   5.5083147e+01   1.1889858e+01
   2.1869619e+01   5.3916042e+01   1.3201789e+01
   4.1272981e+01   5.2576625e+01   1.5217894e+01
   6.1381529e+01   5.0875799e+01   1.6935776e+01
   8.2081980e+01   4.9407834e+01   1.9994524e+01
  -7.4764116e+01   7.6813627e+01   1.3858554e+00
  -5.5042896e+01   7.6800807e+01   9.5261188e-01
  -3.5613097e+01   7.5526051e+01   3.8748984e+00
  -1.5500144e+01   7.4379922e+01   4.6764773e+00
   4.5580522e+00   7.3705815e+01   5.3410006e+00
   2.3580521e+01   7.1891212e+01   6.1380661e+00
   4.4081287e+01   7.0473732e+01   8.7260847e+00
   6.3931815e+01   6.8475467e+01   9.9952428e+00
   8.3203173e+01   6.7115601e+01   1.1771966e+01
