  -7.8464207e+01  -7.4388665e+01  -4.2056168e+00
  -5.9099927e+01  -7.4270810e+01  -1.6366714e+00
  -3.9584256e+01  -7.3769706e+01  -1.6155284e-01
  -1.9981259e+01  -7.4475683e+01   8.3684797e-01
  -4.7225070e-01  -7.3624130e+01   1.6559097e+00
   2.0372881e+01  -7.3982017e+01   3.5560926e+00
   4.0603292e+01  -7.3134298e+01   3.8397785e+00
   6.0832598e+01  -7.2111262e+01   6.1454799e+00
   8.0791042e+01  -7.2149511e+01   7.7088422e+00
  -7.9453282e+01  -5.6744142e+01   4.2294824e+00
  -5.9218112e+01  -5.6595829e+01   6.0855473e+00
  -4.0132923e+01  -5.6633084e+01   7.0948640e+00
  -1.9693643e+01  -5.6332048e+01   8.0292500e+00
  -8.0504542e-01  -5.5476667e+01   8.8469613e+00
   2.0554614e+01  -5.6532036e+01   1.0174629e+01
   3.9916074e+01  -5.4706985e+01   1.2684461e+01
   6.0455065e+01  -5.4749064e+01   1.4812906e+01
   7.8550691e+01  -5.3904663e+01   1.7933945e+01
  -8.0061776e+01  -3.7302091e+01   8.5967541e+00
  -6.1323299e+01  -3.6615005e+01   1.0516306e+01
  -4.0979819e+01  -3.5935248e+01   1.1279519e+01
  -2.1809285e+01  -3.6683991e+01   1.1976627e+01
  -1.4321797e+00  -3.6457313e+01   1.2742413e+01
   1.9737007e+01  -3.5709109e+01   1.4205888e+01
   3.8764516e+01  -3.5519033e+01   1.6261450e+01
   5.8088443e+01  -3.5249077e+01   1.9273680e+01
   7.8783239e+01  -3.4401275e+01   2.3087320e+01
  -8.0829818e+01  -1.6754447e+01   9.1697868e+00
  -6.0641416e+01  -1.6285245e+01   1.0088575e+01
  -4.1089057e+01  -1.6435168e+01   1.1253670e+01
  -2.1269095e+01  -1.5982539e+01   1.1415353e+01
  -1.5046653e+00  -1.6267672e+01   1.2235364e+01
   1.8199495e+01  -1.5812252e+01   1.3698875e+01
   3.8652403e+01  -1.6364060e+01   1.6143285e+01
   5.8305917e+01  -1.5094703e+01   1.9293839e+01
   7.7814879e+01  -1.4861659e+01   2.2963360e+01
  -8.0489620e+01   2.4657378e+00   4.5840679e+00
  -6.0566995e+01   2.2930857e+00   6.3654668e+00
  -4.1547284e+01   3.1360921e+00   7.3495272e+00
  -2.1279624e+01   3.6159494e+00   8.2369808e+00
  -2.0983741e+00   3.9716844e+00   9.4387150e+00
   1.8813395e+01   3.8712053e+00   1.1276193e+01
   3.8272769e+01   3.9748543e+00   1.3603789e+01
   5.8418893e+01   4.1963388e+00   1.6683446e+01
   7.8687258e+01   4.7738319e+00   1.9900388e+01
  -7.9272159e+01   1.9386223e+01  -3.9494572e+00
  -6.0183259e+01   2.0961887e+01  -1.6686735e+00
  -4.0034910e+01   2.1424245e+01   3.3876484e-01
  -2.1742313e+01   2.2065334e+01   1.0706412e+00
  -1.6953921e+00   2.1874425e+01   2.9009461e+00
   1.9166928e+01   2.2442293e+01   5.0142288e+00
   3.9138888e+01   2.2696700e+01   6.8207894e+00
   5.8256665e+01   2.3347131e+01   9.4280961e+00
   7.9187575e+01   2.3912829e+01   1.1716963e+01
  -7.8208486e+01   3.5997181e+01  -1.6202341e+01
  -5.9540660e+01   3.6511242e+01  -1.4015437e+01
  -3.8603062e+01   3.8117562e+01  -1.1826979e+01
  -1.9654016e+01   3.8052551e+01  -9.7078606e+00
   7.2141086e-02   3.8133016e+01  -8.2192350e+00
   1.9699555e+01   3.8952081e+01  -5.6668122e+00
   3.9291425e+01   3.9800183e+01  -3.9192555e+00
   5.9493154e+01   4.0574991e+01  -1.1022861e+00
   8.0091032e+01   4.0343712e+01   1.7500780e+00
  -7.7972090e+01   5.0140976e+01  -3.0165931e+01
  -5.7883887e+01   5.0445828e+01  -2.8634405e+01
  -3.8198513e+01   5.1090954e+01  -2.5752504e+01
  -1.7845424e+01   5.2166077e+01  -2.4390607e+01
   2.0879452e+00   5.3089975e+01  -2.2968460e+01
   2.1179269e+01   5.3514772e+01  -2.0976756e+01
   4.0584248e+01   5.4066007e+01  -1.8633233e+01
   6.0597476e+01   5.4592618e+01  -1.5568752e+01
   8.1416288e+01   5.4651617e+01  -1.3001042e+01
  -7.6901432e+01   6.0435206e+01  -4.5836907e+01
  -5.6123029e+01   6.3798208e+01  -4.4229481e+01
  -3.6971637e+01   6.4070236e+01  -4.1610781e+01
  -1.6867639e+01   6.4259091e+01  -4.0100610e+01
   3.0744802e+00   6.5284103e+01  -3.7982003e+01
   2.2055351e+01   6.5683920e+01  -3.5669186e+01
   4.2483215e+01   6.6477875e+01  -3.2343453e+01
   6.2306331e+01   6.6756994e+01  -2.9771792e+01
   8.2276546e+01   6.7480902e+01  -2.6086998e+01
