  -8.1058123e+01  -7.4342999e+01   1.5887178e+01
  -6.1590386e+01  -7.3688849e+01   1.7359585e+01
  -4.2079817e+01  -7.3533541e+01   1.8972682e+01
  -2.2485966e+01  -7.4494337e+01   1.8008027e+01
  -2.9924604e+00  -7.4036485e+01   1.9346318e+01
   1.7905430e+01  -7.4122647e+01   2.0582860e+01
   3.8131246e+01  -7.3605783e+01   2.1430126e+01
   5.8454422e+01  -7.2612715e+01   2.2683117e+01
   7.7060427e+01  -7.3571005e+01   2.4952924e+01
  -8.1089919e+01  -5.4341980e+01   1.6209948e+01
  -6.0846373e+01  -5.4377927e+01   1.8393508e+01
  -4.1757664e+01  -5.4730001e+01   1.9266300e+01
  -2.1294904e+01  -5.4694759e+01   1.9220914e+01
  -2.3949587e+00  -5.3964520e+01   1.9882940e+01
   1.8948658e+01  -5.5078185e+01   2.1406535e+01
   3.8363926e+01  -5.3256755e+01   2.3462246e+01
   5.8813985e+01  -5.3548316e+01   2.6306944e+01
   7.7159794e+01  -5.3077316e+01   2.9690564e+01
  -8.1012288e+01  -3.4578384e+01   1.3596353e+01
  -6.2234217e+01  -3.4106689e+01   1.5161237e+01
  -4.1899083e+01  -3.3685233e+01   1.6259605e+01
  -2.2728897e+01  -3.4691121e+01   1.6478979e+01
  -2.3447004e+00  -3.4633117e+01   1.7066672e+01
   1.8825789e+01  -3.4041976e+01   1.8582246e+01
   3.7845355e+01  -3.3905335e+01   2.0714143e+01
   5.7160743e+01  -3.3632686e+01   2.3780419e+01
   7.7951633e+01  -3.3086745e+01   2.7093727e+01
  -8.0962998e+01  -1.5138236e+01   6.8730990e+00
  -6.0983799e+01  -1.4619794e+01   9.4477028e+00
  -4.1497027e+01  -1.4797986e+01   1.1424736e+01
  -2.1676491e+01  -1.4537870e+01   1.1799679e+01
  -1.9255846e+00  -1.4879736e+01   1.2881911e+01
   1.7765898e+01  -1.4523382e+01   1.4531678e+01
   3.8195751e+01  -1.5085608e+01   1.7159623e+01
   5.7921083e+01  -1.3878206e+01   1.9852453e+01
   7.7540026e+01  -1.3984943e+01   2.2886422e+01
  -7.9251534e+01   1.4975542e+00  -3.6569270e+00
  -5.9912395e+01   1.9253438e+00   2.7535683e-01
  -4.1193438e+01   3.0229598e+00   2.4353953e+00
  -2.0976164e+01   3.7231421e+00   4.0377285e+00
  -1.8527341e+00   4.3264511e+00   5.8874592e+00
   1.8970103e+01   4.3570816e+00   8.5514845e+00
   3.8385171e+01   4.5344345e+00   1.1219698e+01
   5.8573440e+01   4.6815835e+00   1.4014656e+01
   7.8904818e+01   4.8531127e+00   1.6644599e+01
  -7.7618375e+01   1.6862080e+01  -1.4696410e+01
  -5.8532667e+01   1.8119441e+01  -1.1933917e+01
  -3.8849469e+01   1.8660551e+01  -9.2207682e+00
  -2.0718148e+01   2.0119582e+01  -7.0546332e+00
  -8.1375787e-01   2.0548218e+01  -4.0718454e+00
   1.9954571e+01   2.1318397e+01  -1.2243585e+00
   3.9725303e+01   2.2326069e+01   1.9866147e+00
   5.8827377e+01   2.2927752e+01   4.7177693e+00
   7.9761886e+01   2.3293418e+01   7.0144095e+00
  -7.6494373e+01   3.2528699e+01  -2.8130775e+01
  -5.8232450e+01   3.2827382e+01  -2.5283984e+01
  -3.7065915e+01   3.4264912e+01  -2.2713181e+01
  -1.8115494e+01   3.4381780e+01  -1.9936562e+01
   1.4911134e+00   3.5353952e+01  -1.6979293e+01
   2.0943605e+01   3.6683513e+01  -1.3478731e+01
   4.0278275e+01   3.8462611e+01  -1.0219903e+01
   6.0321680e+01   3.9661719e+01  -6.5498148e+00
   8.0749521e+01   3.9770114e+01  -2.8685091e+00
  -7.5801263e+01   4.8460534e+01  -4.0958496e+01
  -5.6057869e+01   4.8054818e+01  -3.8475958e+01
  -3.6346986e+01   4.8164966e+01  -3.5700269e+01
  -1.6040770e+01   4.9280891e+01  -3.3784222e+01
   3.6562907e+00   5.1137026e+01  -3.0818447e+01
   2.2568922e+01   5.2249151e+01  -2.7703714e+01
   4.1740650e+01   5.3582000e+01  -2.4095737e+01
   6.1372324e+01   5.5023471e+01  -1.9584566e+01
   8.1864501e+01   5.6183467e+01  -1.5255061e+01
  -7.5139799e+01   6.1002517e+01  -5.4596248e+01
  -5.4086065e+01   6.2224746e+01  -5.3305595e+01
  -3.4569032e+01   6.2057842e+01  -5.0709561e+01
  -1.4603268e+01   6.2990398e+01  -4.8066530e+01
   5.0043562e+00   6.5253657e+01  -4.4372483e+01
   2.3774785e+01   6.6385102e+01  -4.0883469e+01
   4.4011208e+01   6.7608050e+01  -3.6643182e+01
   6.3062637e+01   6.9956357e+01  -3.1059685e+01
   8.2842645e+01   7.1911200e+01  -2.6835817e+01
