  -7.9699324e+01  -6.8630183e+01  -1.8590271e+01
  -6.0814325e+01  -6.8362573e+01  -1.7423833e+01
  -4.1303344e+01  -6.9449734e+01  -1.6228740e+01
  -2.1667280e+01  -6.9833058e+01  -1.6453927e+01
  -2.1381652e+00  -6.9359829e+01  -1.5831735e+01
   1.8781326e+01  -7.0032279e+01  -1.5406336e+01
   3.9025727e+01  -6.9978260e+01  -1.4926797e+01
   5.8982062e+01  -6.9779508e+01  -1.3326161e+01
   7.8583649e+01  -7.0125794e+01  -1.2089108e+01
  -8.0708252e+01  -5.4479550e+01  -4.4875198e+00
  -6.0352993e+01  -5.4880054e+01  -4.2165826e+00
  -4.1277446e+01  -5.5536360e+01  -3.2381614e+00
  -2.0818652e+01  -5.5535089e+01  -2.8312154e+00
  -1.9085642e+00  -5.5436529e+01  -2.0707319e+00
   1.9429071e+01  -5.7333232e+01  -1.6023302e+00
   3.8926072e+01  -5.6739731e+01   4.0039262e-01
   5.9567557e+01  -5.6643199e+01   9.4994819e-01
   7.8005728e+01  -5.6369808e+01   3.8132579e+00
  -8.0944175e+01  -3.6721405e+01   4.0275695e+00
  -6.2140736e+01  -3.6757696e+01   5.3377755e+00
  -4.1799808e+01  -3.6717245e+01   6.4086343e+00
  -2.2666120e+01  -3.8247502e+01   6.7496299e+00
  -2.2815295e+00  -3.8703131e+01   7.1033298e+00
   1.8927512e+01  -3.8867806e+01   8.0960250e+00
   3.7995958e+01  -3.9515471e+01   9.6068140e+00
   5.7407165e+01  -3.9922853e+01   1.1973178e+01
   7.8179578e+01  -3.9886416e+01   1.5443437e+01
  -8.1226722e+01  -1.6605150e+01   8.3148053e+00
  -6.1070656e+01  -1.6940073e+01   9.8170411e+00
  -4.1505253e+01  -1.7841546e+01   1.0055857e+01
  -2.1680570e+01  -1.7955958e+01   9.8805039e+00
  -1.9267819e+00  -1.9015526e+01   1.0107604e+01
   1.7796308e+01  -1.9339395e+01   1.1331553e+01
   3.8213072e+01  -2.0803641e+01   1.3700689e+01
   5.7847164e+01  -2.0459351e+01   1.7190930e+01
   7.7312932e+01  -2.1156242e+01   2.1027268e+01
  -8.0385999e+01   3.1292177e+00   7.6760795e+00
  -6.0467024e+01   1.9847403e+00   9.1039376e+00
  -4.1412319e+01   2.1167827e+00   9.6777049e+00
  -2.1123012e+01   1.8845564e+00   9.3844837e+00
  -1.9146918e+00   1.4241463e+00   9.9497318e+00
   1.9011451e+01   4.6484467e-01   1.1315300e+01
   3.8458144e+01  -3.0489279e-01   1.3623840e+01
   5.8648875e+01  -1.0286873e+00   1.6309012e+01
   7.8902027e+01  -1.3742716e+00   1.9669414e+01
  -7.9293844e+01   2.1283376e+01   2.2134963e+00
  -5.9694954e+01   2.1566972e+01   3.7040370e+00
  -3.9516121e+01   2.1195575e+01   5.4000084e+00
  -2.1206273e+01   2.1378540e+01   5.9307929e+00
  -1.1707993e+00   2.0325686e+01   7.5851195e+00
   1.9746365e+01   1.9928644e+01   9.1146375e+00
   3.9704967e+01   1.9579808e+01   1.1048575e+01
   5.8858551e+01   1.9248654e+01   1.3444624e+01
   7.9773644e+01   1.9090458e+01   1.5933759e+01
  -7.7792728e+01   3.9416717e+01  -7.5904349e+00
  -5.9197890e+01   3.8960570e+01  -5.8799912e+00
  -3.7920693e+01   3.9583052e+01  -3.9849602e+00
  -1.8878685e+01   3.8905156e+01  -2.0396688e+00
   9.0300353e-01   3.8255003e+01  -4.9963765e-01
   2.0609067e+01   3.8087880e+01   1.5163587e+00
   4.0232904e+01   3.8081739e+01   3.1036728e+00
   6.0540512e+01   3.7603213e+01   5.1080675e+00
   8.1137041e+01   3.6440597e+01   7.7335859e+00
  -7.7262546e+01   5.6439576e+01  -1.8939239e+01
  -5.7186165e+01   5.4968709e+01  -1.8073295e+01
  -3.7393762e+01   5.4285665e+01  -1.6065869e+01
  -1.6993832e+01   5.4562076e+01  -1.5053272e+01
   2.9748079e+00   5.4284331e+01  -1.3873632e+01
   2.1941077e+01   5.4753332e+01  -1.0926318e+01
   4.1326295e+01   5.4812841e+01  -8.3652715e+00
   6.1305901e+01   5.4629279e+01  -5.0517721e+00
   8.2016160e+01   5.3474603e+01  -3.8049497e+00
  -7.5465344e+01   6.8595500e+01  -3.3141368e+01
  -5.4512293e+01   7.0566752e+01  -3.1269679e+01
  -3.4914374e+01   6.9138398e+01  -3.0019399e+01
  -1.5411159e+01   6.7988736e+01  -2.9586725e+01
   4.5921138e+00   6.7720684e+01  -2.7847907e+01
   2.3479279e+01   6.8141917e+01  -2.4867981e+01
   4.3789290e+01   6.8591127e+01  -2.0831870e+01
   6.3263274e+01   7.0087616e+01  -1.6569037e+01
   8.3319632e+01   6.8140358e+01  -1.3949512e+01
