  -8.1038449e+01  -7.1016095e+01   9.7575800e-01
  -6.1504177e+01  -7.1046242e+01   9.8082426e-01
  -4.1957604e+01  -7.1166349e+01   2.0773293e+00
  -2.2325268e+01  -7.1630104e+01   1.7182357e+00
  -2.7900182e+00  -7.1172733e+01   2.1210222e+00
   1.8134657e+01  -7.1766310e+01   2.3738313e+00
   3.8373962e+01  -7.1158817e+01   2.6385922e+00
   5.8690829e+01  -7.0356806e+01   4.1114538e+00
   7.8704396e+01  -7.0082164e+01   3.7030965e+00
  -8.1218015e+01  -5.4088593e+01   8.6586647e+00
  -6.0970450e+01  -5.4369922e+01   1.0786423e+01
  -4.1888225e+01  -5.4873585e+01   1.1724256e+01
  -2.1425646e+01  -5.4782843e+01   1.1774126e+01
  -2.5125081e+00  -5.4164346e+01   1.1473900e+01
   1.8852461e+01  -5.5575279e+01   1.2285633e+01
   3.8332942e+01  -5.4173208e+01   1.4029553e+01
   5.8956274e+01  -5.4324588e+01   1.5048101e+01
   7.7487498e+01  -5.3718863e+01   1.6863946e+01
  -8.1363602e+01  -3.4848351e+01   1.3876762e+01
  -6.2573003e+01  -3.4355624e+01   1.5276019e+01
  -4.2210032e+01  -3.3886714e+01   1.5099190e+01
  -2.3047889e+01  -3.5011035e+01   1.5421860e+01
  -2.6624801e+00  -3.5208786e+01   1.5931991e+01
   1.8539843e+01  -3.4888225e+01   1.7025027e+01
   3.7586633e+01  -3.5243880e+01   1.8869181e+01
   5.6955945e+01  -3.5376666e+01   2.1584447e+01
   7.7837798e+01  -3.4964200e+01   2.4289132e+01
  -8.1481735e+01  -1.4604179e+01   1.0232117e+01
  -6.1447542e+01  -1.4181171e+01   1.2894456e+01
  -4.1894840e+01  -1.4417690e+01   1.4039252e+01
  -2.2071799e+01  -1.4345137e+01   1.4361270e+01
  -2.3069337e+00  -1.5044311e+01   1.4858922e+01
   1.7420542e+01  -1.5075060e+01   1.6054304e+01
   3.7884601e+01  -1.6100916e+01   1.8238564e+01
   5.7581616e+01  -1.5233586e+01   2.1250743e+01
   7.7097573e+01  -1.5423314e+01   2.4885398e+01
  -8.0544038e+01   4.0690894e+00   3.8297862e+00
  -6.0703614e+01   3.5759950e+00   6.3255093e+00
  -4.1814254e+01   4.7876357e+00   8.5954031e+00
  -2.1573300e+01   5.0236978e+00   1.0025071e+01
  -2.3874836e+00   5.0666811e+00   1.1205597e+01
   1.8517279e+01   4.5054095e+00   1.3039816e+01
   3.7991159e+01   4.1757734e+00   1.5220425e+01
   5.8218102e+01   3.8981327e+00   1.7709069e+01
   7.8502462e+01   4.0131811e+00   2.0892368e+01
  -7.8901680e+01   1.8962807e+01  -7.8358002e+00
  -5.9437136e+01   2.0159430e+01  -5.3622839e+00
  -3.9457368e+01   2.1051667e+01  -2.1666117e+00
  -2.1251490e+01   2.1898062e+01  -3.2396537e-01
  -1.2901287e+00   2.1878587e+01   2.2854757e+00
   1.9480821e+01   2.2429527e+01   5.1645320e+00
   3.9320484e+01   2.2898201e+01   8.0586074e+00
   5.8431971e+01   2.3167746e+01   1.0776859e+01
   7.9343085e+01   2.3380579e+01   1.3295182e+01
  -7.7042926e+01   3.3689319e+01  -2.2218546e+01
  -5.8256354e+01   3.3803282e+01  -1.9752871e+01
  -3.7248367e+01   3.5680869e+01  -1.6652091e+01
  -1.8326534e+01   3.5648020e+01  -1.3684784e+01
   1.3525503e+00   3.6174433e+01  -1.1122338e+01
   2.0657577e+01   3.7831189e+01  -7.0001796e+00
   4.0013269e+01   3.9280475e+01  -3.7030043e+00
   6.0192055e+01   3.9757558e+01  -6.6417495e-01
   8.0774637e+01   3.9045757e+01   2.2189979e+00
  -7.5170496e+01   4.7680374e+01  -3.7037404e+01
  -5.5800298e+01   4.6712386e+01  -3.5178649e+01
  -3.6184569e+01   4.7072501e+01  -3.1866948e+01
  -1.5934378e+01   4.8363005e+01  -2.9516790e+01
   3.8399399e+00   4.9742570e+01  -2.6817078e+01
   2.2661800e+01   5.0691072e+01  -2.3147756e+01
   4.1697075e+01   5.2598166e+01  -1.9101712e+01
   6.1340414e+01   5.4267619e+01  -1.4459537e+01
   8.1997075e+01   5.4900833e+01  -1.0864969e+01
  -7.2802479e+01   5.9707361e+01  -5.1265582e+01
  -5.3075514e+01   6.0304014e+01  -5.0424511e+01
  -3.3624141e+01   6.0283421e+01  -4.7370747e+01
  -1.3612516e+01   6.0637338e+01  -4.4942452e+01
   6.1862862e+00   6.2129722e+01  -4.1941205e+01
   2.4899480e+01   6.2353883e+01  -3.8880147e+01
   4.4709695e+01   6.4963968e+01  -3.3427501e+01
   6.3388666e+01   6.8356708e+01  -2.7163904e+01
   8.2948563e+01   6.9082645e+01  -2.1705458e+01
