  -7.9315958e+01  -5.8800104e+01  -4.5212765e+01
  -5.9846017e+01  -5.8233864e+01  -4.3780714e+01
  -4.0358245e+01  -5.9156925e+01  -4.2148782e+01
  -2.1220516e+01  -6.0510680e+01  -4.2491343e+01
  -1.7069785e+00  -6.0456694e+01  -4.1388461e+01
   1.9150256e+01  -6.1831990e+01  -4.0229746e+01
   3.9378543e+01  -6.1840261e+01  -3.9289025e+01
   5.9530382e+01  -6.3220525e+01  -3.6534767e+01
   7.9061641e+01  -6.4670358e+01  -3.5040115e+01
  -8.0187610e+01  -4.7131909e+01  -2.8988111e+01
  -5.9945636e+01  -4.8482972e+01  -2.7253902e+01
  -4.0895585e+01  -4.9730730e+01  -2.6357685e+01
  -2.0439599e+01  -4.9680042e+01  -2.5830498e+01
  -1.5664227e+00  -4.9965384e+01  -2.4451638e+01
   1.9671906e+01  -5.2645391e+01  -2.3522926e+01
   3.9154141e+01  -5.2670576e+01  -2.1300745e+01
   5.9687147e+01  -5.3914075e+01  -1.9503087e+01
   7.8181035e+01  -5.3872301e+01  -1.7010337e+01
  -8.0823322e+01  -3.3921761e+01  -1.4070856e+01
  -6.2040034e+01  -3.4655331e+01  -1.2679001e+01
  -4.1777459e+01  -3.5577392e+01  -1.0813641e+01
  -2.2652652e+01  -3.7204841e+01  -1.0427478e+01
  -2.3293674e+00  -3.8340197e+01  -9.1867862e+00
   1.8787563e+01  -3.9541770e+01  -7.3246655e+00
   3.7865224e+01  -4.0451837e+01  -6.0908942e+00
   5.7295822e+01  -4.1269311e+01  -4.0066237e+00
   7.8085358e+01  -4.1978165e+01  -7.1574163e-01
  -8.1192828e+01  -1.8030639e+01  -1.0148363e+00
  -6.1091127e+01  -1.8845200e+01   9.1527870e-02
  -4.1597713e+01  -2.0315861e+01   1.3238661e+00
  -2.1826404e+01  -2.1120201e+01   2.5528029e+00
  -2.1378384e+00  -2.2835485e+01   3.4497805e+00
   1.7533354e+01  -2.3910493e+01   5.0283104e+00
   3.8002033e+01  -2.5884117e+01   6.3470440e+00
   5.7677717e+01  -2.6381484e+01   9.5747331e+00
   7.7262340e+01  -2.7641246e+01   1.2570532e+01
  -8.0460147e+01  -4.3241739e-02   7.1384915e+00
  -6.0492779e+01  -1.2307792e+00   7.0482205e+00
  -4.1528149e+01  -1.7989815e+00   8.7808664e+00
  -2.1263027e+01  -2.7005737e+00   9.3357048e+00
  -2.0863973e+00  -3.6731077e+00   1.0231306e+01
   1.8790708e+01  -5.2787317e+00   1.1733627e+01
   3.8245237e+01  -6.7176074e+00   1.3616874e+01
   5.8302311e+01  -8.3378554e+00   1.6855431e+01
   7.8438258e+01  -9.5220883e+00   2.0695106e+01
  -7.9441585e+01   1.8513901e+01   1.1037343e+01
  -5.9825453e+01   1.8393710e+01   1.2306824e+01
  -3.9598159e+01   1.7388837e+01   1.2522168e+01
  -2.1288275e+01   1.6830835e+01   1.2572015e+01
  -1.2322974e+00   1.5160597e+01   1.3055318e+01
   1.9683771e+01   1.4136537e+01   1.4277696e+01
   3.9587830e+01   1.3116677e+01   1.6512849e+01
   5.8642088e+01   1.1979949e+01   1.9403109e+01
   7.9282714e+01   1.1091109e+01   2.3506332e+01
  -7.8329853e+01   3.9141563e+01   1.0364934e+01
  -5.9423194e+01   3.8225221e+01   1.1217198e+01
  -3.8068805e+01   3.8031873e+01   1.2023682e+01
  -1.9037595e+01   3.6089843e+01   1.2963524e+01
   7.6481463e-01   3.4829260e+01   1.3584114e+01
   2.0494169e+01   3.3808639e+01   1.5044253e+01
   4.0088774e+01   3.3383205e+01   1.6911086e+01
   6.0272479e+01   3.2141215e+01   1.9689757e+01
   8.0823706e+01   3.0225320e+01   2.2227164e+01
  -7.6961112e+01   5.9210580e+01   6.5946193e+00
  -5.6948366e+01   5.7787065e+01   6.5437273e+00
  -3.7233473e+01   5.6640807e+01   8.0990632e+00
  -1.7104785e+01   5.6019684e+01   8.8269398e+00
   2.8354285e+00   5.5584136e+01   1.0380475e+01
   2.1987321e+01   5.4605779e+01   1.1315259e+01
   4.1440468e+01   5.3202413e+01   1.2713396e+01
   6.1459449e+01   5.1831722e+01   1.5462808e+01
   8.2199661e+01   5.0383524e+01   1.8249536e+01
  -7.5842004e+01   7.5300812e+01  -3.0256192e+00
  -5.4870882e+01   7.6602069e+01  -1.5970811e+00
  -3.5706842e+01   7.5667842e+01   5.4305078e-01
  -1.5617617e+01   7.4056955e+01   6.7546714e-01
   4.4018784e+00   7.3552636e+01   2.1562466e+00
   2.3438030e+01   7.1951712e+01   3.0751554e+00
   4.3933651e+01   7.0481390e+01   5.6744149e+00
   6.3775348e+01   6.8622275e+01   7.2549281e+00
   8.2235773e+01   6.6838203e+01   7.6819139e+00
