  -7.9835356e+01  -7.2599588e+01   2.1641082e+01
  -6.0823863e+01  -7.1642770e+01   2.2110648e+01
  -4.1364246e+01  -7.1274939e+01   2.4226433e+01
  -2.1762925e+01  -7.1698218e+01   2.3050975e+01
  -2.2498754e+00  -7.0992292e+01   2.3911208e+01
   1.8680800e+01  -7.0804030e+01   2.4271300e+01
   3.8880215e+01  -7.0001979e+01   2.5458302e+01
   5.9176259e+01  -6.8606466e+01   2.6766293e+01
   7.8782027e+01  -6.8624611e+01   2.7683611e+01
  -8.0671964e+01  -5.2618895e+01   2.2107975e+01
  -6.0338822e+01  -5.2347799e+01   2.3137641e+01
  -4.1231473e+01  -5.2348835e+01   2.3554467e+01
  -2.0778398e+01  -5.1866689e+01   2.3963231e+01
  -1.8770785e+00  -5.0907773e+01   2.3954428e+01
   1.9508091e+01  -5.1744952e+01   2.4996171e+01
   3.8899890e+01  -4.9606056e+01   2.6965803e+01
   5.9285622e+01  -4.9513158e+01   3.0251453e+01
   7.7652854e+01  -4.8401430e+01   3.3357617e+01
  -8.0910361e+01  -3.3107579e+01   1.8022837e+01
  -6.2146068e+01  -3.2170839e+01   1.9543076e+01
  -4.1814593e+01  -3.1326136e+01   2.0448251e+01
  -2.2634637e+01  -3.1926800e+01   2.1017855e+01
  -2.2564866e+00  -3.1510300e+01   2.1667263e+01
   1.8909862e+01  -3.0614056e+01   2.3087979e+01
   3.7933227e+01  -3.0162939e+01   2.5141187e+01
   5.7267475e+01  -2.9593305e+01   2.8043418e+01
   7.8002563e+01  -2.8315918e+01   3.1501975e+01
  -8.1058988e+01  -1.4677182e+01   8.8892558e+00
  -6.1121082e+01  -1.3327812e+01   1.1938022e+01
  -4.1629573e+01  -1.2978934e+01   1.3844338e+01
  -2.1855136e+01  -1.2123770e+01   1.4985498e+01
  -2.1272669e+00  -1.1996782e+01   1.6462472e+01
   1.7549628e+01  -1.1311766e+01   1.8181116e+01
   3.7976052e+01  -1.1485255e+01   2.0888919e+01
   5.7749558e+01  -1.0065053e+01   2.3077385e+01
   7.7295799e+01  -9.4180587e+00   2.6489883e+01
  -7.9404478e+01   1.6088790e+00  -2.1826397e+00
  -6.0386161e+01   2.5850421e+00   1.6782764e+00
  -4.1467944e+01   4.0860655e+00   3.4883642e+00
  -2.1313452e+01   5.3147929e+00   5.5088946e+00
  -2.2093629e+00   6.3171417e+00   7.3850979e+00
   1.8616508e+01   6.7298963e+00   9.9930198e+00
   3.7998383e+01   7.3237142e+00   1.2836605e+01
   5.8186347e+01   7.8946802e+00   1.5578824e+01
   7.8516743e+01   8.6885725e+00   1.8344052e+01
  -7.7870033e+01   1.4909460e+01  -1.5649120e+01
  -5.8903681e+01   1.6954827e+01  -1.2623134e+01
  -3.9208833e+01   1.8184257e+01  -1.0003560e+01
  -2.1050552e+01   1.9683770e+01  -8.1077741e+00
  -1.1495713e+00   2.0588096e+01  -5.2097283e+00
   1.9610866e+01   2.1757407e+01  -2.4417379e+00
   3.9399500e+01   2.3112632e+01   5.2152498e-01
   5.8393921e+01   2.4548699e+01   3.6616168e+00
   7.9237273e+01   2.5759747e+01   6.4454877e+00
  -7.6691062e+01   2.8639528e+01  -3.1053135e+01
  -5.8455026e+01   2.9076116e+01  -2.8355616e+01
  -3.7359916e+01   3.1345244e+01  -2.5880972e+01
  -1.8423155e+01   3.1774196e+01  -2.3042518e+01
   1.1262963e+00   3.3475890e+01  -2.0037054e+01
   2.0571086e+01   3.5246583e+01  -1.6692519e+01
   3.9886983e+01   3.7492095e+01  -1.3615444e+01
   5.9975681e+01   3.9052353e+01  -1.0351201e+01
   8.0428209e+01   3.9791889e+01  -6.6621308e+00
  -7.5860404e+01   4.1436369e+01  -4.7003215e+01
  -5.6194408e+01   4.1268915e+01  -4.4382376e+01
  -3.6563060e+01   4.2462990e+01  -4.1313198e+01
  -1.6295696e+01   4.4007454e+01  -3.9286502e+01
   3.4710301e+00   4.5950331e+01  -3.6895468e+01
   2.2284092e+01   4.7712788e+01  -3.3491289e+01
   4.1478937e+01   4.9521195e+01  -3.0229885e+01
   6.1298106e+01   5.1193319e+01  -2.6408603e+01
   8.1510930e+01   5.3984819e+01  -2.1543544e+01
  -7.4991923e+01   5.2075129e+01  -6.2312963e+01
  -5.4050158e+01   5.3886551e+01  -6.0173355e+01
  -3.4509833e+01   5.4483760e+01  -5.7827959e+01
  -1.4534730e+01   5.5575795e+01  -5.5320023e+01
   5.2498700e+00   5.7692464e+01  -5.2615105e+01
   2.3976070e+01   5.9571483e+01  -4.9211999e+01
   4.4171297e+01   6.1590802e+01  -4.5081182e+01
   6.3767529e+01   6.3092639e+01  -4.1423386e+01
   8.3268983e+01   6.6255097e+01  -3.6669086e+01
