  -8.0629505e+01  -7.0923336e+01  -1.0295720e+01
  -6.1125451e+01  -7.0101289e+01  -9.5852618e+00
  -4.1572996e+01  -7.0044963e+01  -8.5918630e+00
  -2.1967031e+01  -7.1172472e+01  -8.2641533e+00
  -2.4689160e+00  -7.1527314e+01  -6.9622365e+00
   1.8454362e+01  -7.1748334e+01  -7.6148021e+00
   3.8699595e+01  -7.1324086e+01  -7.4762703e+00
   5.9019231e+01  -7.0422122e+01  -6.1027484e+00
   7.8514039e+01  -7.1263789e+01  -5.2545457e+00
  -8.1071186e+01  -5.4259976e+01   7.6245637e-01
  -6.0804945e+01  -5.5039668e+01   2.5629521e+00
  -4.1702051e+01  -5.5441187e+01   2.9904585e+00
  -2.1243198e+01  -5.5683464e+01   3.3137671e+00
  -2.3192725e+00  -5.5487978e+01   3.4758587e+00
   1.9046256e+01  -5.7032118e+01   3.9671793e+00
   3.8542944e+01  -5.5881107e+01   5.7137590e+00
   5.9124114e+01  -5.6390603e+01   7.3068817e+00
   7.7635237e+01  -5.6464859e+01   9.6674438e+00
  -8.1237562e+01  -3.5680848e+01   7.9891414e+00
  -6.2469493e+01  -3.5825644e+01   9.7286569e+00
  -4.2115803e+01  -3.5881880e+01   1.0519782e+01
  -2.2969455e+01  -3.7242039e+01   1.0168634e+01
  -2.5859636e+00  -3.7572198e+01   1.0686800e+01
   1.8610773e+01  -3.7600366e+01   1.1925179e+01
   3.7678930e+01  -3.7978966e+01   1.3528185e+01
   5.7070676e+01  -3.8361758e+01   1.6052910e+01
   7.7946363e+01  -3.8495386e+01   1.8832304e+01
  -8.1313915e+01  -1.5237846e+01   1.0269876e+01
  -6.1134492e+01  -1.5593556e+01   1.1410153e+01
  -4.1576436e+01  -1.6449968e+01   1.2061077e+01
  -2.1751849e+01  -1.6638731e+01   1.1951348e+01
  -1.9906622e+00  -1.7458475e+01   1.2409507e+01
   1.7736132e+01  -1.7726231e+01   1.3586410e+01
   3.8173220e+01  -1.8977362e+01   1.5901839e+01
   5.7897674e+01  -1.8412008e+01   1.8804281e+01
   7.7579800e+01  -1.9092183e+01   2.1308389e+01
  -8.0277548e+01   4.0680530e+00   6.1749695e+00
  -6.0473794e+01   3.0877112e+00   8.3125437e+00
  -4.1441456e+01   3.3308331e+00   9.3799905e+00
  -2.1172057e+01   3.1413904e+00   1.0334702e+01
  -1.9618710e+00   2.9317115e+00   1.0979566e+01
   1.8966384e+01   2.0389354e+00   1.2357819e+01
   3.8425913e+01   1.4812374e+00   1.4618668e+01
   5.8651368e+01   9.6410005e-01   1.7081025e+01
   7.8955218e+01   7.1726819e-01   2.0129734e+01
  -7.8993843e+01   2.0994774e+01  -2.3364490e+00
  -5.9513308e+01   2.1556592e+01  -1.2527137e-01
  -3.9415132e+01   2.1572278e+01   2.3772560e+00
  -2.1153763e+01   2.1829300e+01   3.7992624e+00
  -1.1389175e+00   2.1284958e+01   5.8909464e+00
   1.9765488e+01   2.1041213e+01   7.6146781e+00
   3.9690495e+01   2.0966309e+01   9.8941711e+00
   5.8834016e+01   2.0898608e+01   1.2390469e+01
   7.9800766e+01   2.0715622e+01   1.4396419e+01
  -7.7578847e+01   3.7731085e+01  -1.4347498e+01
  -5.8790358e+01   3.7539055e+01  -1.1901355e+01
  -3.7554409e+01   3.8329683e+01  -9.6414552e+00
  -1.8553990e+01   3.7453485e+01  -7.3924408e+00
   1.1718753e+00   3.7524282e+01  -5.1575367e+00
   2.0784359e+01   3.7975581e+01  -2.4065509e+00
   4.0334884e+01   3.8484866e+01  -1.4111925e-01
   6.0542712e+01   3.8592885e+01   2.7359388e+00
   8.1141785e+01   3.7638006e+01   5.3430452e+00
  -7.6495801e+01   5.2576593e+01  -2.8393566e+01
  -5.6491023e+01   5.1793044e+01  -2.6119958e+01
  -3.6769213e+01   5.1412653e+01  -2.3447693e+01
  -1.6444831e+01   5.2085091e+01  -2.1517354e+01
   3.4260256e+00   5.2957582e+01  -1.9371868e+01
   2.2393378e+01   5.3393407e+01  -1.6426430e+01
   4.1656511e+01   5.4035705e+01  -1.3129717e+01
   6.1524591e+01   5.4662189e+01  -9.2484095e+00
   8.2241995e+01   5.4761244e+01  -5.9622343e+00
  -7.5345622e+01   6.6282386e+01  -4.1159560e+01
  -5.4226790e+01   6.6356663e+01  -4.0520213e+01
  -3.4745917e+01   6.6073846e+01  -3.7674695e+01
  -1.4651626e+01   6.5290323e+01  -3.6228130e+01
   5.2766837e+00   6.5985379e+01  -3.3860295e+01
   2.4146044e+01   6.6327239e+01  -3.0759842e+01
   4.4307307e+01   6.7599121e+01  -2.6188814e+01
   6.3633979e+01   6.9249580e+01  -2.1351145e+01
   8.3731894e+01   6.8901990e+01  -1.8373868e+01
