  -7.9144439e+01  -5.8154509e+01  -4.7668375e+01
  -5.9659612e+01  -5.8411946e+01  -4.6303117e+01
  -4.0155634e+01  -5.9489344e+01  -4.4990642e+01
  -2.0542890e+01  -6.0451453e+01  -4.4557879e+01
  -1.0790606e+00  -6.0780828e+01  -4.2811948e+01
   1.9758126e+01  -6.2222804e+01  -4.1401043e+01
   3.9980768e+01  -6.2763176e+01  -4.0494757e+01
   6.0182740e+01  -6.4402502e+01  -3.8308293e+01
   8.0093617e+01  -6.6114049e+01  -3.7119742e+01
  -7.9779428e+01  -4.6432203e+01  -3.1897088e+01
  -5.9489701e+01  -4.7621668e+01  -3.0679501e+01
  -4.0486650e+01  -4.9034022e+01  -2.9211892e+01
  -2.0073338e+01  -4.9567616e+01  -2.7892872e+01
  -1.2932123e+00  -5.0676428e+01  -2.5829654e+01
   2.0063578e+01  -5.2406218e+01  -2.5746672e+01
   3.9574756e+01  -5.2216182e+01  -2.3803994e+01
   6.0040193e+01  -5.4135176e+01  -2.1837883e+01
   7.7881260e+01  -5.5047458e+01  -1.9369181e+01
  -8.0152080e+01  -3.3334422e+01  -1.6872255e+01
  -6.1588350e+01  -3.4092361e+01  -1.5322083e+01
  -4.1404367e+01  -3.5409051e+01  -1.2918988e+01
  -2.2248435e+01  -3.6673437e+01  -1.2832252e+01
  -1.9741700e+00  -3.8256982e+01  -1.1312118e+01
   1.9211429e+01  -3.8866796e+01  -1.0033633e+01
   3.8263909e+01  -3.9989879e+01  -8.6020999e+00
   5.7757776e+01  -4.0576588e+01  -7.1170089e+00
   7.8441230e+01  -4.1862114e+01  -4.1105231e+00
  -8.0848376e+01  -1.7625492e+01  -3.6107091e+00
  -6.0833598e+01  -1.8816791e+01  -1.9043943e+00
  -4.1325338e+01  -2.0159898e+01  -7.6486210e-01
  -2.1516348e+01  -2.0703367e+01  -1.5620059e-01
  -1.8471562e+00  -2.2492323e+01   9.8787570e-01
   1.7821042e+01  -2.3559837e+01   2.6082387e+00
   3.8319083e+01  -2.5337186e+01   3.7362570e+00
   5.8107350e+01  -2.5506172e+01   6.2250003e+00
   7.7690529e+01  -2.7307029e+01   8.9407456e+00
  -8.0180574e+01   1.2843188e-02   5.2776673e+00
  -6.0398966e+01  -1.5933301e+00   5.9813471e+00
  -4.1410634e+01  -2.0641289e+00   7.3971589e+00
  -2.1144228e+01  -2.8940045e+00   8.0135799e+00
  -1.9678886e+00  -3.8217265e+00   8.9614076e+00
   1.8898190e+01  -5.4371625e+00   1.0600193e+01
   3.8359743e+01  -6.8060937e+00   1.2462910e+01
   5.8508844e+01  -8.2778876e+00   1.5154969e+01
   7.8806687e+01  -9.6087042e+00   1.7952896e+01
  -7.9429226e+01   1.8320147e+01   1.0266072e+01
  -5.9811055e+01   1.7973377e+01   1.1460136e+01
  -3.9607198e+01   1.6862871e+01   1.2337895e+01
  -2.1294993e+01   1.6398755e+01   1.2453953e+01
  -1.2352885e+00   1.4794296e+01   1.3001205e+01
   1.9673314e+01   1.3785481e+01   1.4356742e+01
   3.9571062e+01   1.2802015e+01   1.6663249e+01
   5.8609299e+01   1.1697830e+01   1.9669378e+01
   7.9362544e+01   1.0562068e+01   2.3086215e+01
  -7.8665559e+01   3.8811579e+01   1.2855763e+01
  -5.9776919e+01   3.7693986e+01   1.3854792e+01
  -3.8448159e+01   3.7344806e+01   1.5143128e+01
  -1.9383047e+01   3.5510899e+01   1.5136976e+01
   4.3362815e-01   3.4353837e+01   1.5401927e+01
   2.0171819e+01   3.3338046e+01   1.6740992e+01
   3.9734635e+01   3.2951657e+01   1.8923082e+01
   5.9864049e+01   3.1743081e+01   2.2084022e+01
   8.0339667e+01   2.9673112e+01   2.5071723e+01
  -7.7986704e+01   5.9148958e+01   1.0668444e+01
  -5.7967240e+01   5.7833540e+01   1.2529934e+01
  -3.8172732e+01   5.6345858e+01   1.4013096e+01
  -1.7752611e+01   5.5850279e+01   1.3834298e+01
   2.2377378e+00   5.5356709e+01   1.4432299e+01
   2.1327931e+01   5.4483024e+01   1.6283570e+01
   4.0809711e+01   5.3235018e+01   1.7402446e+01
   6.0805126e+01   5.1632439e+01   2.0197574e+01
   8.1651982e+01   4.9966248e+01   2.1826038e+01
  -7.6735206e+01   7.6419582e+01   6.3022280e+00
  -5.5635412e+01   7.7454755e+01   6.6849692e+00
  -3.6072567e+01   7.5965332e+01   8.3458585e+00
  -1.6002742e+01   7.4896733e+01   8.5265768e+00
   4.0522424e+00   7.4454199e+01   9.4370851e+00
   2.3054320e+01   7.3559923e+01   1.1412872e+01
   4.3632371e+01   7.1661887e+01   1.2802029e+01
   6.3275834e+01   6.9865167e+01   1.4122861e+01
   8.2900227e+01   6.8285665e+01   1.5097488e+01
