  -8.0336456e+01  -7.1022545e+01  -3.4329636e+00
  -6.1231093e+01  -7.0661268e+01  -1.9707260e+00
  -4.1724498e+01  -7.1012818e+01  -3.4048297e-01
  -2.2115293e+01  -7.2123379e+01  -4.7608700e-01
  -2.5796952e+00  -7.1547369e+01  -6.3749542e-01
   1.8354467e+01  -7.1614506e+01  -7.5847040e-01
   3.8576413e+01  -7.1680494e+01   3.0791865e-01
   5.8871215e+01  -7.0817281e+01   2.0294164e+00
   7.8523044e+01  -7.0863792e+01   2.0820777e+00
  -8.1181506e+01  -5.4240061e+01   7.4196898e+00
  -6.0891774e+01  -5.4762163e+01   9.0397308e+00
  -4.1784469e+01  -5.5028686e+01   8.7166075e+00
  -2.1324573e+01  -5.5259225e+01   8.9762153e+00
  -2.4138445e+00  -5.4890315e+01   9.6302007e+00
   1.8974035e+01  -5.6113199e+01   1.0048206e+01
   3.8476569e+01  -5.4813099e+01   1.1615725e+01
   5.9035512e+01  -5.5168137e+01   1.3509398e+01
   7.7504264e+01  -5.5286100e+01   1.6179737e+01
  -8.1350874e+01  -3.5028309e+01   1.2741020e+01
  -6.2512971e+01  -3.4768960e+01   1.3335534e+01
  -4.2144642e+01  -3.4607747e+01   1.3418755e+01
  -2.2990823e+01  -3.5837196e+01   1.3837832e+01
  -2.6029392e+00  -3.5916229e+01   1.4276201e+01
   1.8598979e+01  -3.5712447e+01   1.5404534e+01
   3.7665157e+01  -3.6045869e+01   1.7040772e+01
   5.6985043e+01  -3.6239050e+01   2.0084663e+01
   7.7886263e+01  -3.6187664e+01   2.2667983e+01
  -8.1531551e+01  -1.4478425e+01   1.1850187e+01
  -6.1326596e+01  -1.4475949e+01   1.2479204e+01
  -4.1758345e+01  -1.5114263e+01   1.3071498e+01
  -2.1933954e+01  -1.5154974e+01   1.3303351e+01
  -2.1639820e+00  -1.5731646e+01   1.3752851e+01
   1.7567133e+01  -1.5783268e+01   1.4885824e+01
   3.8006581e+01  -1.6894404e+01   1.7251286e+01
   5.7735163e+01  -1.6097462e+01   2.0070122e+01
   7.7361870e+01  -1.6633640e+01   2.3006817e+01
  -8.0249506e+01   3.9721821e+00   4.8866027e+00
  -6.0596301e+01   3.7562047e+00   7.3726717e+00
  -4.1572673e+01   4.3112959e+00   8.4780571e+00
  -2.1339539e+01   4.4186449e+00   1.0028749e+01
  -2.1397063e+00   4.5154984e+00   1.0949675e+01
   1.8782023e+01   3.8830864e+00   1.2552740e+01
   3.8245978e+01   3.4579800e+00   1.4804282e+01
   5.8448428e+01   3.1841112e+00   1.7484889e+01
   7.8839075e+01   2.9567148e+00   1.9887325e+01
  -7.8694177e+01   1.9737500e+01  -5.5843940e+00
  -5.9283804e+01   2.0830151e+01  -3.5807083e+00
  -3.9299001e+01   2.1180479e+01  -1.3278417e+00
  -2.1178752e+01   2.2131015e+01   1.1858786e+00
  -1.1602643e+00   2.1951747e+01   3.3056654e+00
   1.9713055e+01   2.2101794e+01   5.3809641e+00
   3.9607955e+01   2.2276351e+01   7.9048644e+00
   5.8685055e+01   2.2559063e+01   1.0853560e+01
   7.9550844e+01   2.2830255e+01   1.3718389e+01
  -7.7273874e+01   3.4638695e+01  -1.9836608e+01
  -5.8539601e+01   3.5371613e+01  -1.7094774e+01
  -3.7282021e+01   3.6439055e+01  -1.5178112e+01
  -1.8417537e+01   3.6200075e+01  -1.1874192e+01
   1.1829707e+00   3.7314222e+01  -8.9265872e+00
   2.0836629e+01   3.7728336e+01  -6.4805024e+00
   4.0237511e+01   3.8892395e+01  -3.3395877e+00
   6.0357891e+01   3.9409589e+01   5.8692171e-02
   8.0971269e+01   3.8504123e+01   2.6530715e+00
  -7.6058336e+01   4.9448021e+01  -3.3910006e+01
  -5.6094824e+01   4.8531330e+01  -3.2309133e+01
  -3.6316259e+01   4.8243245e+01  -3.0081844e+01
  -1.6055429e+01   4.9041907e+01  -2.7608023e+01
   3.6914788e+00   5.0783609e+01  -2.4917037e+01
   2.2613462e+01   5.1532899e+01  -2.1751109e+01
   4.1709474e+01   5.2878308e+01  -1.7765966e+01
   6.1374967e+01   5.4414150e+01  -1.3171707e+01
   8.2015713e+01   5.5098601e+01  -9.4960212e+00
  -7.3863175e+01   5.9792716e+01  -4.9429845e+01
  -5.2862086e+01   6.1566245e+01  -4.7937105e+01
  -3.3599812e+01   6.0676049e+01  -4.6190795e+01
  -1.3788873e+01   6.1820949e+01  -4.2626682e+01
   6.0589885e+00   6.3336936e+01  -3.9982552e+01
   2.4829469e+01   6.4426224e+01  -3.6480418e+01
   4.4989215e+01   6.5654080e+01  -3.1890702e+01
   6.4169272e+01   6.7956083e+01  -2.6745462e+01
   8.3884645e+01   6.9846297e+01  -2.2202078e+01
