  -7.9068984e+01  -5.9295135e+01  -4.4360511e+01
  -5.9564155e+01  -6.0355571e+01  -4.4521288e+01
  -4.0009055e+01  -6.0477923e+01  -4.3587707e+01
  -2.0388306e+01  -6.1324425e+01  -4.3300765e+01
  -9.9487590e-01  -6.2342090e+01  -4.1096986e+01
   1.9907968e+01  -6.2866834e+01  -4.0070306e+01
   4.0126817e+01  -6.3288939e+01  -3.9026950e+01
   6.0400593e+01  -6.4351936e+01  -3.7174458e+01
   8.0380189e+01  -6.5509592e+01  -3.6663931e+01
  -7.9750517e+01  -4.7941544e+01  -3.0583653e+01
  -5.9472074e+01  -4.9029980e+01  -2.9110411e+01
  -4.0412004e+01  -4.9937858e+01  -2.8036157e+01
  -1.9985633e+01  -5.0268421e+01  -2.6860582e+01
  -1.1675399e+00  -5.0813916e+01  -2.4921182e+01
   2.0184268e+01  -5.2571993e+01  -2.4573271e+01
   3.9690497e+01  -5.2243530e+01  -2.2599617e+01
   6.0215317e+01  -5.3753107e+01  -2.0915824e+01
   7.8761562e+01  -5.4319207e+01  -1.8926924e+01
  -8.0272002e+01  -3.3969688e+01  -1.6372674e+01
  -6.1555768e+01  -3.4882803e+01  -1.4334031e+01
  -4.1311797e+01  -3.5732489e+01  -1.2245644e+01
  -2.2209647e+01  -3.7450385e+01  -1.1401443e+01
  -1.8559925e+00  -3.8187575e+01  -1.0376975e+01
   1.9302933e+01  -3.8972399e+01  -8.7895382e+00
   3.8333235e+01  -4.0260232e+01  -7.2094626e+00
   5.7779851e+01  -4.1211420e+01  -5.3426595e+00
   7.8756003e+01  -4.1357917e+01  -3.4673504e+00
  -8.1020230e+01  -1.8532918e+01  -2.7980579e+00
  -6.0840761e+01  -1.8963305e+01  -1.6847064e+00
  -4.1354530e+01  -2.0366108e+01  -2.7274029e-01
  -2.1615419e+01  -2.1259955e+01   1.3491235e+00
  -1.8890784e+00  -2.2614836e+01   1.9988754e+00
   1.7835836e+01  -2.3366740e+01   2.9815270e+00
   3.8233267e+01  -2.5491437e+01   4.9893981e+00
   5.8046829e+01  -2.5495559e+01   7.2742708e+00
   7.7740612e+01  -2.6712033e+01   9.4638798e+00
  -8.0388589e+01  -4.0133143e-01   5.0381832e+00
  -6.0473891e+01  -1.7857822e+00   6.3040069e+00
  -4.1465011e+01  -2.1335071e+00   7.7075623e+00
  -2.1213003e+01  -2.9339914e+00   8.7131814e+00
  -2.0146258e+00  -3.6829594e+00   9.3068204e+00
   1.8885522e+01  -5.1045250e+00   1.0667510e+01
   3.8359763e+01  -6.3973547e+00   1.2450276e+01
   5.8512985e+01  -7.7165654e+00   1.5190160e+01
   7.8872704e+01  -8.6351177e+00   1.7688164e+01
  -7.9580259e+01   1.7872287e+01   1.0139902e+01
  -5.9965889e+01   1.7875425e+01   1.1441874e+01
  -3.9736674e+01   1.6985761e+01   1.1874220e+01
  -2.1431317e+01   1.6518895e+01   1.2385762e+01
  -1.3579051e+00   1.5048457e+01   1.2787581e+01
   1.9551790e+01   1.4162684e+01   1.4210564e+01
   3.9467910e+01   1.3270414e+01   1.6392225e+01
   5.8476914e+01   1.2279408e+01   1.9614976e+01
   7.9154742e+01   1.1351416e+01   2.3517308e+01
  -7.8835660e+01   3.8458402e+01   1.1826899e+01
  -5.9949821e+01   3.7668071e+01   1.3141532e+01
  -3.8612592e+01   3.7515247e+01   1.4323503e+01
  -1.9542902e+01   3.5731529e+01   1.4239619e+01
   2.7108448e-01   3.4651890e+01   1.4831160e+01
   1.9996582e+01   3.3738252e+01   1.6409484e+01
   3.9556985e+01   3.3423597e+01   1.8624489e+01
   5.9711194e+01   3.2365014e+01   2.1679443e+01
   8.0264201e+01   3.0543333e+01   2.4271242e+01
  -7.8177260e+01   5.8655948e+01   8.5896408e+00
  -5.8185695e+01   5.7721471e+01   1.0821867e+01
  -3.8382579e+01   5.6452077e+01   1.2390529e+01
  -1.7964538e+01   5.6069643e+01   1.2855575e+01
   2.0323132e+00   5.5619564e+01   1.3227926e+01
   2.1153339e+01   5.4768228e+01   1.4740407e+01
   4.0590973e+01   5.3703427e+01   1.6582624e+01
   6.0689483e+01   5.2284853e+01   1.8640582e+01
   8.1568995e+01   5.0522638e+01   1.9455341e+01
  -7.6638459e+01   7.6659397e+01   3.4705713e+00
  -5.6191706e+01   7.6925928e+01   3.6242368e+00
  -3.6659790e+01   7.5839030e+01   5.8613598e+00
  -1.6555362e+01   7.4402264e+01   5.3769002e+00
   3.4772347e+00   7.4242655e+01   6.7541096e+00
   2.2483832e+01   7.3096655e+01   8.5480830e+00
   4.3081672e+01   7.1335359e+01   9.8190432e+00
   6.2937948e+01   7.0222284e+01   1.1852921e+01
   8.3044036e+01   6.7648909e+01   1.3279162e+01
