  -7.9030098e+01  -6.1281158e+01  -4.4260931e+01
  -5.9527564e+01  -6.0538228e+01  -4.3431536e+01
  -3.9997258e+01  -6.1005009e+01  -4.2151779e+01
  -2.0465749e+01  -6.2227832e+01  -4.1645379e+01
  -9.4980081e-01  -6.1620396e+01  -4.0775781e+01
   1.9860779e+01  -6.3423740e+01  -3.9387971e+01
   4.0089202e+01  -6.3696554e+01  -3.8490703e+01
   6.0256641e+01  -6.4552616e+01  -3.5639519e+01
   8.0025305e+01  -6.6585776e+01  -3.3220580e+01
  -7.9505721e+01  -4.8983568e+01  -2.8491054e+01
  -5.9249140e+01  -4.9601257e+01  -2.7467849e+01
  -4.0259684e+01  -5.1091209e+01  -2.5904147e+01
  -1.9812214e+01  -5.1216588e+01  -2.5121145e+01
  -9.3469122e-01  -5.1452748e+01  -2.3793433e+01
   2.0422595e+01  -5.3173047e+01  -2.3657540e+01
   3.9860684e+01  -5.3153880e+01  -2.1077522e+01
   6.0421549e+01  -5.3983364e+01  -1.9361423e+01
   7.8742969e+01  -5.5180424e+01  -1.6024948e+01
  -8.0157107e+01  -3.5668435e+01  -1.3668113e+01
  -6.1524966e+01  -3.5664106e+01  -1.2817740e+01
  -4.1210067e+01  -3.5966889e+01  -1.1363471e+01
  -2.2113536e+01  -3.7837259e+01  -1.0746880e+01
  -1.7543923e+00  -3.8606852e+01  -9.8652710e+00
   1.9410275e+01  -3.9199270e+01  -8.2709334e+00
   3.8464520e+01  -4.0014795e+01  -6.6652494e+00
   5.7815217e+01  -4.1152024e+01  -4.0541496e+00
   7.8650562e+01  -4.1684079e+01  -1.0304949e+00
  -8.0882470e+01  -1.8269336e+01  -2.7196369e+00
  -6.0808672e+01  -1.9396126e+01  -6.1992092e-01
  -4.1250383e+01  -2.0380674e+01  -1.9719664e-01
  -2.1474775e+01  -2.1085068e+01   1.0239075e+00
  -1.7564977e+00  -2.2424145e+01   1.9086524e+00
   1.7945558e+01  -2.3059902e+01   3.3327315e+00
   3.8392346e+01  -2.4901496e+01   5.1043075e+00
   5.8127675e+01  -2.4991166e+01   7.9864291e+00
   7.7736874e+01  -2.6168895e+01   1.0852009e+01
  -8.0310966e+01  -4.6441720e-01   5.8371331e+00
  -6.0372685e+01  -1.8807588e+00   6.5941803e+00
  -4.1330544e+01  -2.0026730e+00   7.4944331e+00
  -2.1073730e+01  -2.6906833e+00   8.4863911e+00
  -1.8843278e+00  -3.3916121e+00   9.3619486e+00
   1.9017151e+01  -4.7099446e+00   1.0803709e+01
   3.8467237e+01  -5.9317802e+00   1.2876627e+01
   5.8626817e+01  -7.0981351e+00   1.5638980e+01
   7.8762800e+01  -8.2750866e+00   1.9480708e+01
  -7.9529524e+01   1.8156440e+01   9.4784355e+00
  -5.9918295e+01   1.7998256e+01   1.0817582e+01
  -3.9687790e+01   1.7190967e+01   1.1341525e+01
  -2.1382989e+01   1.6802405e+01   1.1932279e+01
  -1.3112210e+00   1.5392010e+01   1.2565076e+01
   1.9607696e+01   1.4632662e+01   1.3924176e+01
   3.9531941e+01   1.3871867e+01   1.6081312e+01
   5.8579948e+01   1.3082747e+01   1.9124529e+01
   7.9343345e+01   1.2305919e+01   2.2579932e+01
  -7.8886378e+01   3.8796751e+01   1.0345866e+01
  -6.0044020e+01   3.7831751e+01   1.1937675e+01
  -3.8689776e+01   3.7823073e+01   1.2770697e+01
  -1.9631821e+01   3.6054755e+01   1.3484251e+01
   1.8774707e-01   3.5057383e+01   1.4031578e+01
   1.9938342e+01   3.4207757e+01   1.5301714e+01
   3.9518214e+01   3.4108184e+01   1.7359209e+01
   5.9721253e+01   3.3253913e+01   2.0143614e+01
   8.0351242e+01   3.1512272e+01   2.2101238e+01
  -7.8390068e+01   5.8514597e+01   6.8041061e+00
  -5.8340589e+01   5.7755017e+01   8.6523120e+00
  -3.8526230e+01   5.6688697e+01   1.0230161e+01
  -1.8106116e+01   5.6220117e+01   1.0471600e+01
   1.8782436e+00   5.5918832e+01   1.1337551e+01
   2.1030352e+01   5.5169418e+01   1.2460550e+01
   4.0491600e+01   5.4250705e+01   1.4123359e+01
   6.0586393e+01   5.3048942e+01   1.6348831e+01
   8.1462185e+01   5.1627080e+01   1.7831778e+01
  -7.7095450e+01   7.5695091e+01  -6.6928345e-01
  -5.5996298e+01   7.6398993e+01   1.9657060e-01
  -3.6574363e+01   7.5675033e+01   2.6696552e+00
  -1.6757657e+01   7.4726706e+01   3.4225456e+00
   3.3105207e+00   7.4256818e+01   3.9466402e+00
   2.2367759e+01   7.3232348e+01   5.1934514e+00
   4.2969895e+01   7.1636813e+01   6.6058126e+00
   6.2832830e+01   7.0635284e+01   8.6326489e+00
   8.3074647e+01   6.8854093e+01   8.7179374e+00
