  -8.1603963e+01  -7.0449829e+01   1.6634540e+01
  -6.2075018e+01  -7.0330639e+01   1.7075913e+01
  -4.2530140e+01  -7.0255305e+01   1.5944289e+01
  -2.2921735e+01  -7.1065958e+01   1.5153108e+01
  -3.3808219e+00  -7.0696866e+01   1.5035168e+01
   1.7551852e+01  -7.0650053e+01   1.4753592e+01
   3.7774399e+01  -6.9599161e+01   1.4866854e+01
   5.8100614e+01  -6.8310801e+01   1.5745927e+01
   7.7104438e+01  -6.8385256e+01   1.5215985e+01
  -8.1781997e+01  -5.1620802e+01   2.1251068e+01
  -6.1438679e+01  -5.1763726e+01   2.0414778e+01
  -4.2332215e+01  -5.2171851e+01   2.0617229e+01
  -2.1877536e+01  -5.2205855e+01   2.0040328e+01
  -2.9680652e+00  -5.1527827e+01   2.0429763e+01
   1.8403764e+01  -5.2755740e+01   2.1351021e+01
   3.7848793e+01  -5.0828248e+01   2.2985589e+01
   5.8441074e+01  -5.0994545e+01   2.4506289e+01
   7.7043565e+01  -5.0169005e+01   2.5733157e+01
  -8.1726973e+01  -3.1841342e+01   1.8759769e+01
  -6.2913777e+01  -3.1263940e+01   1.9768515e+01
  -4.2548854e+01  -3.0943059e+01   1.9506403e+01
  -2.3382658e+01  -3.2022842e+01   1.9723059e+01
  -2.9907124e+00  -3.1999421e+01   1.9902625e+01
   1.8203134e+01  -3.1532834e+01   2.1102294e+01
   3.7224946e+01  -3.1286972e+01   2.3204144e+01
   5.6571115e+01  -3.0999241e+01   2.6068328e+01
   7.7353704e+01  -3.0335632e+01   2.9412099e+01
  -8.1632525e+01  -1.2935273e+01   1.0655722e+01
  -6.1679896e+01  -1.1876451e+01   1.3722864e+01
  -4.2139872e+01  -1.1954864e+01   1.5085212e+01
  -2.2332526e+01  -1.1690010e+01   1.5898127e+01
  -2.5758173e+00  -1.2037061e+01   1.6866836e+01
   1.7130861e+01  -1.1790457e+01   1.8346440e+01
   3.7563496e+01  -1.2265046e+01   2.0970038e+01
   5.7264755e+01  -1.0983596e+01   2.3801320e+01
   7.6895768e+01  -1.0957919e+01   2.6758004e+01
  -7.9827544e+01   2.8782479e+00  -1.0589969e+00
  -6.0510232e+01   3.8850068e+00   3.2715596e+00
  -4.1809104e+01   5.4385540e+00   5.2951091e+00
  -2.1631048e+01   6.1979269e+00   7.3113611e+00
  -2.5581952e+00   7.0474130e+00   9.5464689e+00
   1.8193485e+01   7.2050155e+00   1.2713716e+01
   3.7595617e+01   7.4826339e+00   1.5466149e+01
   5.7817537e+01   7.5933758e+00   1.8008068e+01
   7.8145401e+01   8.0028154e+00   2.0873761e+01
  -7.7889656e+01   1.5438381e+01  -1.5169053e+01
  -5.9048310e+01   1.7514875e+01  -1.1738713e+01
  -3.9093307e+01   1.9031268e+01  -8.6245589e+00
  -2.1054141e+01   2.0840137e+01  -6.0011569e+00
  -1.2662449e+00   2.1787508e+01  -2.4224505e+00
   1.9350230e+01   2.3052699e+01   1.2361126e+00
   3.9031757e+01   2.4460342e+01   4.8227013e+00
   5.8130566e+01   2.5151474e+01   7.5555249e+00
   7.8992774e+01   2.5947344e+01   1.0347800e+01
  -7.6301090e+01   2.7755198e+01  -3.1461080e+01
  -5.7766951e+01   2.9160542e+01  -2.7781608e+01
  -3.6761511e+01   3.1734838e+01  -2.4808019e+01
  -1.7942794e+01   3.2349040e+01  -2.1297982e+01
   1.4201402e+00   3.4266489e+01  -1.7359734e+01
   2.0785771e+01   3.5840689e+01  -1.3497696e+01
   4.0004996e+01   3.8274155e+01  -9.9885336e+00
   5.9907206e+01   4.0175431e+01  -5.8735954e+00
   8.0378202e+01   4.0227514e+01  -2.2133174e+00
  -7.4536936e+01   3.9468110e+01  -4.8150886e+01
  -5.4650218e+01   3.9526930e+01  -4.4912158e+01
  -3.5237239e+01   4.1589393e+01  -4.1023972e+01
  -1.5085332e+01   4.3434263e+01  -3.8239010e+01
   4.5395569e+00   4.5498747e+01  -3.4950104e+01
   2.3296156e+01   4.7181370e+01  -3.1210484e+01
   4.2173808e+01   4.9807042e+01  -2.6841356e+01
   6.1506530e+01   5.2748202e+01  -2.1569443e+01
   8.1955168e+01   5.4305579e+01  -1.7159529e+01
  -7.2907807e+01   5.1139299e+01  -6.2773684e+01
  -5.1889371e+01   5.1682220e+01  -6.0688019e+01
  -3.2359383e+01   5.2341280e+01  -5.8274097e+01
  -1.2539692e+01   5.3890952e+01  -5.4917701e+01
   7.1309152e+00   5.6068577e+01  -5.1518816e+01
   2.5882502e+01   5.7328341e+01  -4.7972916e+01
   4.5444874e+01   6.0935949e+01  -4.2203405e+01
   6.4436632e+01   6.4181163e+01  -3.6871517e+01
   8.4046809e+01   6.6670859e+01  -3.2164762e+01
