  -8.1683971e+01  -7.6173037e+01   1.0103963e+01
  -6.2149868e+01  -7.6249867e+01   1.0064847e+01
  -4.2580953e+01  -7.6759573e+01   9.7711717e+00
  -2.3012950e+01  -7.8220817e+01   8.9163532e+00
  -3.4768591e+00  -7.7953027e+01   8.3997756e+00
   1.7446040e+01  -7.8612361e+01   8.6361310e+00
   3.7684591e+01  -7.8900484e+01   8.0143306e+00
   5.8070038e+01  -7.8788745e+01   7.9207087e+00
   7.7753584e+01  -8.0799424e+01   6.6452345e+00
  -8.0897516e+01  -5.6256660e+01   1.1796706e+01
  -6.0553733e+01  -5.7011637e+01   1.1434936e+01
  -4.1459966e+01  -5.7838750e+01   1.1527216e+01
  -2.1021412e+01  -5.8283120e+01   1.0635091e+01
  -2.1030399e+00  -5.7992934e+01   1.0198693e+01
   1.9255942e+01  -5.9687765e+01   1.0380333e+01
   3.8833248e+01  -5.8597392e+01   1.0189567e+01
   5.9454981e+01  -5.9604858e+01   1.0523229e+01
   7.8098588e+01  -6.0009129e+01   9.8218694e+00
  -8.0407755e+01  -3.6336936e+01   1.1163153e+01
  -6.1569483e+01  -3.6477095e+01   1.0661897e+01
  -4.1212420e+01  -3.6623954e+01   1.0180505e+01
  -2.2082022e+01  -3.8098978e+01   9.5416562e+00
  -1.7006384e+00  -3.8498934e+01   8.9907874e+00
   1.9530263e+01  -3.8492665e+01   9.2820059e+00
   3.8647111e+01  -3.9046546e+01   1.0021524e+01
   5.8171713e+01  -3.9510474e+01   1.1087016e+01
   7.9228085e+01  -3.9911351e+01   1.1162399e+01
  -8.0329455e+01  -1.5912336e+01   8.7231685e+00
  -6.0125042e+01  -1.6329064e+01   8.2293000e+00
  -4.0568172e+01  -1.7292174e+01   7.7040253e+00
  -2.0760661e+01  -1.7593496e+01   6.9080012e+00
  -9.9713983e-01  -1.8449129e+01   6.6682113e+00
   1.8759718e+01  -1.8659957e+01   7.1428770e+00
   3.9292301e+01  -1.9982233e+01   8.2679061e+00
   5.9171216e+01  -1.9421634e+01   9.7885578e+00
   7.8995695e+01  -2.0370203e+01   1.0246314e+01
  -7.9510623e+01   3.2431755e+00   3.9319324e+00
  -5.9539314e+01   2.1204156e+00   3.9520286e+00
  -4.0476779e+01   2.2857914e+00   3.8076906e+00
  -2.0187883e+01   1.9699294e+00   3.5692558e+00
  -9.6699382e-01   1.7511445e+00   3.5451800e+00
   1.9992805e+01   9.5291108e-01   4.4043278e+00
   3.9561839e+01   2.9277532e-01   5.2486230e+00
   5.9889711e+01  -2.2583375e-01   6.6300408e+00
   8.0389779e+01  -6.9185462e-01   7.6939634e+00
  -7.8721949e+01   2.0922485e+01  -2.9547261e+00
  -5.9069339e+01   2.1308256e+01  -2.7430976e+00
  -3.8829340e+01   2.0947646e+01  -2.1012630e+00
  -2.0510896e+01   2.0932441e+01  -2.1113330e+00
  -4.0834825e-01   2.0163782e+01  -1.3615153e+00
   2.0550454e+01   1.9915113e+01  -5.2988142e-01
   4.0592053e+01   1.9703793e+01   1.7525041e-01
   5.9846082e+01   1.9622616e+01   1.5846061e+00
   8.0839983e+01   1.9653777e+01   3.2925340e+00
  -7.8174735e+01   3.9553582e+01  -1.1886203e+01
  -5.9244388e+01   3.9330131e+01  -1.1098893e+01
  -3.7916639e+01   4.0076771e+01  -9.9731028e+00
  -1.8816653e+01   3.8937949e+01  -9.1155765e+00
   1.0160508e+00   3.8632065e+01  -8.2910180e+00
   2.0785077e+01   3.8514670e+01  -7.0289046e+00
   4.0473006e+01   3.8521426e+01  -7.0301647e+00
   6.0798934e+01   3.8541895e+01  -5.1588804e+00
   8.1199911e+01   3.7386716e+01  -4.1601397e+00
  -7.8185142e+01   5.7708523e+01  -2.1333542e+01
  -5.8240400e+01   5.7596152e+01  -1.9815330e+01
  -3.8423434e+01   5.7028479e+01  -1.8620391e+01
  -1.8130624e+01   5.7109686e+01  -1.8462395e+01
   1.8393874e+00   5.7308137e+01  -1.7289990e+01
   2.1004053e+01   5.7157865e+01  -1.6141509e+01
   4.0513841e+01   5.7027766e+01  -1.4837509e+01
   6.0729355e+01   5.6859506e+01  -1.3611826e+01
   8.1668571e+01   5.6184068e+01  -1.2557038e+01
  -7.7364559e+01   7.4277679e+01  -3.0136193e+01
  -5.6285566e+01   7.5623330e+01  -2.9602699e+01
  -3.7130369e+01   7.4972198e+01  -2.8509928e+01
  -1.7250013e+01   7.4254857e+01  -2.8425776e+01
   2.7963593e+00   7.4411561e+01  -2.7265752e+01
   2.1880988e+01   7.4234536e+01  -2.6029628e+01
   4.2007145e+01   7.3710618e+01  -2.4395856e+01
   6.1880922e+01   7.3728938e+01  -2.2232536e+01
   8.2056866e+01   7.4190044e+01  -1.9859803e+01
