  -7.9776078e+01  -6.4971467e+01  -2.8772997e+01
  -6.0456414e+01  -6.6172001e+01  -2.6146591e+01
  -4.0948424e+01  -6.7072291e+01  -2.4762276e+01
  -2.1317676e+01  -6.7709761e+01  -2.4769053e+01
  -1.7977791e+00  -6.7360089e+01  -2.3847772e+01
   1.9126956e+01  -6.7644865e+01  -2.3271004e+01
   3.9318801e+01  -6.8132802e+01  -2.1815004e+01
   5.9632539e+01  -6.7812216e+01  -2.0130685e+01
   7.9137352e+01  -6.9077800e+01  -1.8413786e+01
  -8.0532494e+01  -5.2962657e+01  -1.2792971e+01
  -6.0189678e+01  -5.3382131e+01  -1.2041809e+01
  -4.1143531e+01  -5.4418875e+01  -1.0844312e+01
  -2.0732537e+01  -5.5196261e+01  -9.6135263e+00
  -1.8640847e+00  -5.5400937e+01  -8.1578220e+00
   1.9505590e+01  -5.6864700e+01  -7.6046695e+00
   3.8987533e+01  -5.6340653e+01  -5.4423886e+00
   5.9571018e+01  -5.7066825e+01  -3.9675937e+00
   7.7811428e+01  -5.6335041e+01  -1.7311480e+00
  -8.0390414e+01  -3.6859489e+01  -1.0411870e+00
  -6.2005929e+01  -3.7145928e+01   4.6353786e-01
  -4.1645784e+01  -3.7077063e+01   1.0647588e+00
  -2.2527529e+01  -3.8689097e+01   1.7353105e+00
  -2.1924630e+00  -3.9553776e+01   3.0008753e+00
   1.9012200e+01  -3.9758957e+01   4.0761237e+00
   3.8040850e+01  -4.0506395e+01   5.9890805e+00
   5.7525743e+01  -4.0755777e+01   7.6735168e+00
   7.8193842e+01  -4.1274057e+01   1.1685783e+01
  -8.1110269e+01  -1.7607463e+01   6.1675049e+00
  -6.0951269e+01  -1.8128608e+01   7.5742646e+00
  -4.1395872e+01  -1.9074979e+01   8.1788413e+00
  -2.1572673e+01  -1.9310721e+01   8.3959494e+00
  -1.8263523e+00  -2.0391251e+01   8.9451841e+00
   1.7895096e+01  -2.0783810e+01   1.0175450e+01
   3.8352820e+01  -2.2348257e+01   1.2082046e+01
   5.8039648e+01  -2.2093551e+01   1.5269811e+01
   7.7552350e+01  -2.3059514e+01   1.8796942e+01
  -8.0337364e+01   1.9362134e+00   8.9972363e+00
  -6.0369144e+01   7.6108574e-01   8.9388299e+00
  -4.1336049e+01   8.0200608e-01   1.0019606e+01
  -2.1046017e+01   4.7517766e-01   9.9592025e+00
  -1.8307478e+00   1.1588780e-02   1.0181858e+01
   1.9089663e+01  -1.0546822e+00   1.1555901e+01
   3.8561451e+01  -1.9060046e+00   1.3610265e+01
   5.8674567e+01  -2.6977434e+00   1.6809538e+01
   7.8914245e+01  -3.2652271e+00   2.0220595e+01
  -7.9332877e+01   2.0481211e+01   5.0374195e+00
  -5.9769269e+01   2.0976534e+01   6.8907533e+00
  -3.9558452e+01   2.0260087e+01   7.9903608e+00
  -2.1244506e+01   2.0209910e+01   8.3935643e+00
  -1.1626847e+00   1.9036603e+01   9.1741550e+00
   1.9772784e+01   1.8499387e+01   1.0375142e+01
   3.9694786e+01   1.8128597e+01   1.2651971e+01
   5.8873644e+01   1.7683776e+01   1.4816227e+01
   7.9808031e+01   1.7303072e+01   1.7111540e+01
  -7.8318122e+01   4.0040684e+01  -1.5645318e+00
  -5.9412652e+01   3.9432306e+01  -4.5058353e-01
  -3.8111280e+01   3.9777962e+01   1.2316220e+00
  -1.9058309e+01   3.8662191e+01   2.8381994e+00
   7.5028427e-01   3.8025462e+01   3.9887706e+00
   2.0502661e+01   3.7555460e+01   5.4183958e+00
   4.0161798e+01   3.7400968e+01   6.4715154e+00
   6.0463607e+01   3.6839901e+01   8.5128990e+00
   8.1018709e+01   3.5355332e+01   1.0570961e+01
  -7.7355793e+01   5.7237405e+01  -1.2618982e+01
  -5.7402758e+01   5.6758228e+01  -1.0765842e+01
  -3.7616547e+01   5.5994644e+01  -8.7266569e+00
  -1.7231330e+01   5.6239387e+01  -7.4452828e+00
   2.7495659e+00   5.6252576e+01  -6.4558830e+00
   2.1918626e+01   5.5591127e+01  -5.5982131e+00
   4.1316544e+01   5.5399048e+01  -3.1419855e+00
   6.1480141e+01   5.4255445e+01  -1.6191046e+00
   8.2328282e+01   5.3253871e+01   4.7168691e-01
  -7.6210211e+01   7.2841658e+01  -2.3006085e+01
  -5.5120939e+01   7.2254833e+01  -2.4153959e+01
  -3.5730119e+01   7.2056426e+01  -2.1372303e+01
  -1.5625162e+01   7.0575936e+01  -2.1079245e+01
   4.4327055e+00   6.9626519e+01  -2.0990786e+01
   2.3389838e+01   6.9955234e+01  -1.8480510e+01
   4.3897995e+01   6.9961961e+01  -1.5581551e+01
   6.3741591e+01   6.9371998e+01  -1.3229756e+01
   8.3706584e+01   6.8202766e+01  -9.6320990e+00
