  -7.6191185e+01  -6.6912097e+01  -3.8422045e+01
  -5.6847254e+01  -6.6615138e+01  -3.5717821e+01
  -3.7564938e+01  -6.6563681e+01  -3.3700798e+01
  -1.8088345e+01  -6.7995357e+01  -3.1606690e+01
   1.3531721e+00  -6.7405573e+01  -2.9689141e+01
   2.2192521e+01  -6.7710784e+01  -2.7717675e+01
   4.2161160e+01  -6.8159479e+01  -2.5669976e+01
   6.2116744e+01  -6.9558024e+01  -2.1744876e+01
   8.1914340e+01  -7.1266061e+01  -1.9311183e+01
  -7.7771402e+01  -5.3325956e+01  -2.3825276e+01
  -5.7612933e+01  -5.4018588e+01  -2.1045570e+01
  -3.8565902e+01  -5.3957338e+01  -1.9473501e+01
  -1.8252645e+01  -5.4538986e+01  -1.7073264e+01
   4.8804807e-01  -5.4617432e+01  -1.4435137e+01
   2.1766674e+01  -5.6440559e+01  -1.2700823e+01
   4.1198706e+01  -5.5313590e+01  -1.0329690e+01
   6.1663259e+01  -5.6160136e+01  -7.7090768e+00
   8.0118030e+01  -5.6006728e+01  -4.9455154e+00
  -7.9274474e+01  -3.8237565e+01  -1.0882407e+01
  -6.0658935e+01  -3.8459784e+01  -7.9328975e+00
  -4.0377425e+01  -3.8131221e+01  -6.0744283e+00
  -2.1234816e+01  -3.9052689e+01  -4.9486463e+00
  -9.4355387e-01  -3.9584761e+01  -2.9875742e+00
   2.0168021e+01  -3.9569443e+01  -7.2103976e-01
   3.9186188e+01  -3.9814437e+01   1.4136454e+00
   5.8558621e+01  -4.0132988e+01   4.0909494e+00
   7.9305410e+01  -4.0314381e+01   7.7068908e+00
  -8.0413603e+01  -1.9731366e+01  -1.9747202e+00
  -6.0424758e+01  -2.0183823e+01   1.0047464e+00
  -4.0958678e+01  -2.0911428e+01   3.0582890e+00
  -2.1166350e+01  -2.0774202e+01   4.2014476e+00
  -1.4269692e+00  -2.1410231e+01   5.3584727e+00
   1.8218103e+01  -2.1491663e+01   7.5189578e+00
   3.8639331e+01  -2.2696396e+01   9.9934554e+00
   5.8298117e+01  -2.2219248e+01   1.3325480e+01
   7.7920158e+01  -2.2787051e+01   1.6287301e+01
  -8.0503208e+01  -1.0959289e+00   4.6034634e+00
  -6.0583397e+01  -1.9639556e+00   6.2040444e+00
  -4.1562794e+01  -1.4299204e+00   7.3701823e+00
  -2.1287969e+01  -1.3303949e+00   8.2172254e+00
  -2.0835851e+00  -1.3155561e+00   9.0433296e+00
   1.8847325e+01  -1.8922722e+00   1.0544298e+01
   3.8287677e+01  -2.4166138e+00   1.2971950e+01
   5.8421837e+01  -2.9499517e+00   1.6091369e+01
   7.8580575e+01  -3.2522223e+00   1.9981850e+01
  -8.0132836e+01   1.7878470e+01   5.2676083e+00
  -6.0578983e+01   1.8337877e+01   7.2308740e+00
  -4.0365923e+01   1.8145568e+01   8.4937270e+00
  -2.2067811e+01   1.8421692e+01   9.3113835e+00
  -1.9620595e+00   1.7721276e+01   1.0041927e+01
   1.8969479e+01   1.7689444e+01   1.1418344e+01
   3.8881690e+01   1.7646698e+01   1.3807824e+01
   5.7970170e+01   1.7515959e+01   1.6692838e+01
   7.8633136e+01   1.7553563e+01   2.0779691e+01
  -7.9722017e+01   3.8419729e+01   3.0145217e+00
  -6.0828560e+01   3.7997333e+01   4.3880892e+00
  -3.9600213e+01   3.8761463e+01   6.7271263e+00
  -2.0500708e+01   3.7682360e+01   7.6684988e+00
  -6.5808092e-01   3.7368869e+01   8.1990642e+00
   1.9082656e+01   3.7330241e+01   9.8491871e+00
   3.8644235e+01   3.7842639e+01   1.2016368e+01
   5.8807039e+01   3.7671873e+01   1.5190905e+01
   7.9314918e+01   3.6642388e+01   1.8481662e+01
  -7.9077417e+01   5.7591845e+01  -4.1177040e+00
  -5.9205321e+01   5.6791134e+01  -3.0139336e+00
  -3.9545522e+01   5.6607060e+01   9.9569111e-02
  -1.9123447e+01   5.6783939e+01   5.0759758e-01
   8.0171606e-01   5.7528549e+01   2.1350798e+00
   1.9962969e+01   5.7469842e+01   3.3470763e+00
   3.9337706e+01   5.7240630e+01   5.9769424e+00
   5.9389672e+01   5.6531531e+01   8.7361915e+00
   8.0251603e+01   5.5713194e+01   1.0768363e+01
  -7.7572177e+01   7.3412357e+01  -1.4124832e+01
  -5.7459826e+01   7.3934649e+01  -1.4148015e+01
  -3.8282688e+01   7.3689332e+01  -1.1216492e+01
  -1.8213069e+01   7.4005836e+01  -9.3198548e+00
   1.3709533e+00   7.4723255e+01  -7.2423371e+00
   2.0424162e+01   7.3517012e+01  -6.1010094e+00
   4.0965879e+01   7.2626646e+01  -3.6042896e+00
   6.0719158e+01   7.2560087e+01  -5.3006801e-01
   8.0952614e+01   7.2824571e+01   1.3268704e+00
