  -8.1467917e+01  -7.6863821e+01   6.4372423e+00
  -6.1969415e+01  -7.7442095e+01   7.4681313e+00
  -4.2415256e+01  -7.7888900e+01   8.3188661e+00
  -2.2824438e+01  -7.8934354e+01   7.3810291e+00
  -3.3332511e+00  -7.9071537e+01   8.8205562e+00
   1.7588037e+01  -7.9804192e+01   8.9662232e+00
   3.7828454e+01  -8.0092002e+01   9.5241386e+00
   5.8210625e+01  -8.0116403e+01   9.1314395e+00
   7.7466154e+01  -8.1885890e+01   1.0169412e+01
  -8.0826105e+01  -5.7543793e+01   5.3854521e+00
  -6.0508108e+01  -5.8166191e+01   6.5524982e+00
  -4.1424131e+01  -5.8908485e+01   7.2703670e+00
  -2.0970500e+01  -5.9244053e+01   6.7563159e+00
  -2.0454854e+00  -5.9122115e+01   6.8479920e+00
   1.9299698e+01  -6.0840607e+01   7.5838425e+00
   3.8850482e+01  -5.9689138e+01   8.5519217e+00
   5.9468240e+01  -6.0748852e+01   8.9609060e+00
   7.8070977e+01  -6.0861820e+01   1.0432240e+01
  -8.0282237e+01  -3.7742254e+01   3.6925241e+00
  -6.1510385e+01  -3.7666551e+01   5.1182818e+00
  -4.1142407e+01  -3.7780290e+01   4.9331700e+00
  -2.2002403e+01  -3.9167468e+01   4.3928508e+00
  -1.6180990e+00  -3.9723245e+01   4.5812332e+00
   1.9598763e+01  -3.9729409e+01   5.4062968e+00
   3.8687600e+01  -4.0225100e+01   6.7017412e+00
   5.8170337e+01  -4.0656059e+01   8.3744084e+00
   7.9150824e+01  -4.0717939e+01   1.0205399e+01
  -8.0244303e+01  -1.7247913e+01   1.9305915e+00
  -6.0050215e+01  -1.7505356e+01   2.8071790e+00
  -4.0491724e+01  -1.8464347e+01   2.3376547e+00
  -2.0670890e+01  -1.8641277e+01   1.9312484e+00
  -9.1697659e-01  -1.9674242e+01   2.2510247e+00
   1.8833211e+01  -1.9935404e+01   2.9329898e+00
   3.9333349e+01  -2.1196863e+01   4.5925503e+00
   5.9173259e+01  -2.0608360e+01   6.5494667e+00
   7.8920996e+01  -2.1230812e+01   8.4882110e+00
  -7.9395593e+01   2.2468187e+00  -1.1991342e+00
  -5.9465417e+01   1.1480819e+00  -4.6828953e-01
  -4.0402412e+01   1.2835710e+00  -5.7752394e-01
  -2.0111025e+01   1.0494153e+00  -5.5191430e-01
  -8.9695859e-01   6.1879371e-01  -1.9796926e-01
   2.0062042e+01  -2.7144421e-01   5.8705898e-01
   3.9608327e+01  -8.7872265e-01   1.8792059e+00
   5.9911622e+01  -1.3817987e+00   3.5888265e+00
   8.0372576e+01  -1.7156410e+00   5.2740010e+00
  -7.8608922e+01   2.0687929e+01  -5.6614956e+00
  -5.9019242e+01   2.1072048e+01  -4.4751981e+00
  -3.8776530e+01   2.0543811e+01  -4.0838390e+00
  -2.0458284e+01   2.0542022e+01  -3.9969102e+00
  -3.8240817e-01   1.9474753e+01  -2.9549560e+00
   2.0582836e+01   1.9098803e+01  -2.3701016e+00
   4.0604629e+01   1.8944499e+01  -1.2248759e+00
   5.9870535e+01   1.8781602e+01   3.4620199e-03
   8.0903149e+01   1.8683155e+01   1.1354507e+00
  -7.8228326e+01   4.0938515e+01  -9.7794325e+00
  -5.9295196e+01   4.0331514e+01  -9.3367548e+00
  -3.7959758e+01   4.0816929e+01  -8.2137214e+00
  -1.8856577e+01   3.9475592e+01  -7.8805489e+00
   9.4983712e-01   3.8850577e+01  -6.6868406e+00
   2.0718363e+01   3.8560642e+01  -5.4449026e+00
   4.0350387e+01   3.8930875e+01  -4.6339606e+00
   6.0728174e+01   3.8690199e+01  -3.4792485e+00
   8.1456783e+01   3.7623285e+01  -2.1953097e+00
  -7.7615948e+01   6.0585883e+01  -1.5476810e+01
  -5.8082188e+01   6.0117541e+01  -1.3540749e+01
  -3.8370020e+01   5.9355641e+01  -1.2519611e+01
  -1.7944558e+01   5.9420939e+01  -1.2284757e+01
   2.0153627e+00   5.9475882e+01  -1.0937985e+01
   2.1143363e+01   5.9189400e+01  -1.0116294e+01
   4.0658859e+01   5.9054709e+01  -8.9012080e+00
   6.0887061e+01   5.8294169e+01  -8.2385685e+00
   8.1773983e+01   5.7786476e+01  -6.3682111e+00
  -7.7070885e+01   7.8837626e+01  -1.9866997e+01
  -5.6753870e+01   7.9891731e+01  -1.9180795e+01
  -3.7333058e+01   7.9147468e+01  -1.7873141e+01
  -1.7209967e+01   7.8761391e+01  -1.6690279e+01
   2.8533819e+00   7.8658335e+01  -1.5866463e+01
   2.1954716e+01   7.8333071e+01  -1.4963328e+01
   4.2607776e+01   7.7716948e+01  -1.3528062e+01
   6.2576824e+01   7.7028385e+01  -1.2887522e+01
   8.2831889e+01   7.6361547e+01  -1.1404664e+01
