  -7.8795166e+01  -7.3934379e+01  -1.8049685e+00
  -5.9364993e+01  -7.3801154e+01   2.0484275e-01
  -3.9941556e+01  -7.3856195e+01   2.6575041e+00
  -2.0323771e+01  -7.4303204e+01   3.5032944e+00
  -8.6364306e-01  -7.3523501e+01   5.1443072e+00
   2.0026228e+01  -7.3591121e+01   6.5107026e+00
   4.0259399e+01  -7.2961066e+01   7.0496006e+00
   6.0517282e+01  -7.1600774e+01   8.8814014e+00
   8.0534553e+01  -7.1315799e+01   8.7687895e+00
  -7.9669827e+01  -5.6515350e+01   6.8958548e+00
  -5.9370165e+01  -5.6297217e+01   8.4599238e+00
  -4.0342005e+01  -5.6258083e+01   9.6068824e+00
  -1.9913560e+01  -5.5760749e+01   1.0683515e+01
  -1.0593901e+00  -5.5094042e+01   1.2185262e+01
   2.0316120e+01  -5.6084842e+01   1.3288644e+01
   3.9741553e+01  -5.4268733e+01   1.5250910e+01
   6.0224115e+01  -5.4398067e+01   1.7864364e+01
   7.8203325e+01  -5.3418681e+01   1.9571792e+01
  -8.0348408e+01  -3.6891810e+01   1.0344459e+01
  -6.1562987e+01  -3.6093738e+01   1.1670486e+01
  -4.1239241e+01  -3.5249811e+01   1.2735777e+01
  -2.2067127e+01  -3.6078089e+01   1.3283477e+01
  -1.7070144e+00  -3.5917974e+01   1.4425584e+01
   1.9464742e+01  -3.5232588e+01   1.5882630e+01
   3.8494196e+01  -3.4937813e+01   1.7907616e+01
   5.7797430e+01  -3.4656746e+01   2.1048753e+01
   7.8590159e+01  -3.3806855e+01   2.4285619e+01
  -8.0910955e+01  -1.6393800e+01   8.7199393e+00
  -6.0796185e+01  -1.5788909e+01   1.0634614e+01
  -4.1242304e+01  -1.5772669e+01   1.1783603e+01
  -2.1429192e+01  -1.5391474e+01   1.2381280e+01
  -1.6623931e+00  -1.5765264e+01   1.3102612e+01
   1.8044542e+01  -1.5365544e+01   1.4544884e+01
   3.8485044e+01  -1.5798605e+01   1.7113818e+01
   5.8159282e+01  -1.4525362e+01   2.0130621e+01
   7.7715174e+01  -1.4276667e+01   2.3540097e+01
  -8.0292824e+01   2.7055298e+00   3.6807372e+00
  -6.0422316e+01   2.5730433e+00   5.9741036e+00
  -4.1452021e+01   3.7173705e+00   7.4730473e+00
  -2.1205610e+01   4.1323413e+00   8.7793999e+00
  -2.0063357e+00   4.3839274e+00   9.6825145e+00
   1.8915983e+01   4.2039957e+00   1.1389185e+01
   3.8371266e+01   4.4223902e+00   1.3742899e+01
   5.8557369e+01   4.6058000e+00   1.6551323e+01
   7.8869211e+01   5.1673524e+00   1.9503553e+01
  -7.9458208e+01   1.9325662e+01  -5.4669782e+00
  -5.9920970e+01   2.0482323e+01  -3.6292888e+00
  -3.9830453e+01   2.1272998e+01  -1.1909619e+00
  -2.1598978e+01   2.2067472e+01   4.0523607e-01
  -1.5481212e+00   2.1909387e+01   2.1951084e+00
   1.9331997e+01   2.2412140e+01   4.1426057e+00
   3.9258086e+01   2.2906516e+01   6.3593942e+00
   5.8409290e+01   2.3527099e+01   8.7166702e+00
   7.9295147e+01   2.4312130e+01   1.1329444e+01
  -7.8388480e+01   3.5541575e+01  -1.8237583e+01
  -5.9870945e+01   3.5969328e+01  -1.6070677e+01
  -3.8687687e+01   3.7481830e+01  -1.4024128e+01
  -1.9693802e+01   3.7198595e+01  -1.1575900e+01
   6.3415334e-02   3.7636894e+01  -9.6864862e+00
   1.9632092e+01   3.8458703e+01  -6.7178816e+00
   3.9214664e+01   3.9450243e+01  -4.9418404e+00
   5.9478771e+01   3.9955303e+01  -2.5425937e+00
   8.0113090e+01   3.9870136e+01   4.1912719e-02
  -7.7622155e+01   5.0015841e+01  -3.2686199e+01
  -5.7578459e+01   4.9869985e+01  -3.0635980e+01
  -3.8298344e+01   5.0742530e+01  -2.7676762e+01
  -1.7899982e+01   5.0934503e+01  -2.6614274e+01
   1.9608877e+00   5.2148131e+01  -2.4543467e+01
   2.0952892e+01   5.3155468e+01  -2.1913818e+01
   4.0349735e+01   5.3822067e+01  -1.9533213e+01
   6.0398761e+01   5.4295115e+01  -1.6702941e+01
   8.1175097e+01   5.4313685e+01  -1.3811047e+01
  -7.6608823e+01   5.9944860e+01  -4.8594835e+01
  -5.5695032e+01   6.2217095e+01  -4.6627697e+01
  -3.6146248e+01   6.2586841e+01  -4.4306024e+01
  -1.6092018e+01   6.3001494e+01  -4.2270594e+01
   3.8341710e+00   6.4031169e+01  -4.0009177e+01
   2.2852397e+01   6.4439808e+01  -3.8028648e+01
   4.3242740e+01   6.5597525e+01  -3.4581612e+01
   6.3025360e+01   6.6198088e+01  -3.1764783e+01
   8.2943415e+01   6.7643253e+01  -2.8010618e+01
