  -7.9242990e+01  -7.4606923e+01   6.0126558e+00
  -5.9954525e+01  -7.3946471e+01   9.0305346e+00
  -4.0417331e+01  -7.3107500e+01   9.9700406e+00
  -2.0804016e+01  -7.3710275e+01   1.0822815e+01
  -1.2928149e+00  -7.2595689e+01   1.1083855e+01
   1.9601796e+01  -7.2716453e+01   1.2371859e+01
   3.9802675e+01  -7.1877863e+01   1.3507572e+01
   6.0040091e+01  -7.0600255e+01   1.5605768e+01
   8.0051810e+01  -7.0440218e+01   1.6144754e+01
  -8.0035226e+01  -5.5335290e+01   1.1315717e+01
  -5.9976603e+01  -5.5003354e+01   1.2991861e+01
  -4.0913640e+01  -5.5089557e+01   1.4355875e+01
  -2.0497989e+01  -5.4736283e+01   1.5699098e+01
  -1.5970393e+00  -5.3857938e+01   1.6101691e+01
   1.9775234e+01  -5.4568733e+01   1.7455307e+01
   3.9091157e+01  -5.2581539e+01   2.0183377e+01
   5.9516801e+01  -5.2749535e+01   2.3207786e+01
   7.7982145e+01  -5.1839731e+01   2.5746043e+01
  -8.0690337e+01  -3.5505231e+01   1.3258980e+01
  -6.1916645e+01  -3.4589915e+01   1.4672481e+01
  -4.1576859e+01  -3.3871597e+01   1.5496417e+01
  -2.2400531e+01  -3.4587492e+01   1.6054887e+01
  -2.0255686e+00  -3.4342238e+01   1.6870352e+01
   1.9134243e+01  -3.3500248e+01   1.8416127e+01
   3.8130173e+01  -3.3059855e+01   2.0711397e+01
   5.7411827e+01  -3.2731424e+01   2.3977977e+01
   7.8193729e+01  -3.1722043e+01   2.7238480e+01
  -8.1183900e+01  -1.5378436e+01   9.0408694e+00
  -6.1159218e+01  -1.4483129e+01   1.1657430e+01
  -4.1593102e+01  -1.4592277e+01   1.2568405e+01
  -2.1789648e+01  -1.4058707e+01   1.3343291e+01
  -2.0347784e+00  -1.4300330e+01   1.4379208e+01
   1.7649982e+01  -1.3733967e+01   1.6050323e+01
   3.8064822e+01  -1.3996209e+01   1.8837189e+01
   5.7750125e+01  -1.2699932e+01   2.1770855e+01
   7.7347998e+01  -1.2314770e+01   2.4916377e+01
  -8.0393742e+01   2.8524276e+00   1.4532941e+00
  -6.0612887e+01   3.0196997e+00   4.4204456e+00
  -4.1654570e+01   4.2565824e+00   5.9954878e+00
  -2.1429011e+01   4.9156104e+00   7.5082139e+00
  -2.2577604e+00   5.3709844e+00   8.8298913e+00
   1.8584458e+01   5.5161134e+00   1.1333766e+01
   3.7962461e+01   5.9789310e+00   1.4227637e+01
   5.8218291e+01   6.0302054e+00   1.6485593e+01
   7.8455315e+01   6.8896890e+00   1.9851009e+01
  -7.9275845e+01   1.8430889e+01  -9.3479977e+00
  -5.9814279e+01   1.9840811e+01  -6.9651267e+00
  -3.9763451e+01   2.0877815e+01  -4.3027097e+00
  -2.1521909e+01   2.1767780e+01  -2.8814947e+00
  -1.5176271e+00   2.1905811e+01  -6.2868553e-01
   1.9322167e+01   2.2556527e+01   1.6744393e+00
   3.9193477e+01   2.3349591e+01   4.2647390e+00
   5.8350148e+01   2.3955154e+01   6.5811475e+00
   7.9196668e+01   2.4906481e+01   9.4411296e+00
  -7.7896743e+01   3.2937682e+01  -2.4005403e+01
  -5.9208977e+01   3.3869367e+01  -2.1017570e+01
  -3.8074777e+01   3.5668598e+01  -1.8693799e+01
  -1.9081695e+01   3.5630251e+01  -1.6223363e+01
   5.6915574e-01   3.6682199e+01  -1.3606670e+01
   2.0153971e+01   3.7759197e+01  -1.0832472e+01
   3.9672183e+01   3.9026784e+01  -8.5858710e+00
   5.9884678e+01   3.9834692e+01  -5.8567981e+00
   8.0469900e+01   3.9597826e+01  -2.9149318e+00
  -7.6497774e+01   4.5877571e+01  -3.9799590e+01
  -5.7010817e+01   4.6583759e+01  -3.6642682e+01
  -3.7331654e+01   4.7309927e+01  -3.3737737e+01
  -1.6980472e+01   4.8192262e+01  -3.2217937e+01
   2.7919220e+00   5.0035485e+01  -2.9795082e+01
   2.1813217e+01   5.0846604e+01  -2.7313464e+01
   4.1024800e+01   5.2479902e+01  -2.4058225e+01
   6.1027007e+01   5.3167484e+01  -2.0953943e+01
   8.1670933e+01   5.4205297e+01  -1.7380316e+01
  -7.5725094e+01   5.6853492e+01  -5.4971217e+01
  -5.4686236e+01   5.8160366e+01  -5.3529707e+01
  -3.5346347e+01   5.9543636e+01  -5.0103767e+01
  -1.5248457e+01   5.9398356e+01  -4.8509804e+01
   4.5944350e+00   6.1245140e+01  -4.6044798e+01
   2.3452747e+01   6.2389934e+01  -4.3072270e+01
   4.3735343e+01   6.3457423e+01  -3.9552112e+01
   6.3116365e+01   6.5682171e+01  -3.5184757e+01
   8.2930415e+01   6.7907683e+01  -3.1276028e+01
