  -7.6893845e+01  -7.0923945e+01  -2.4787601e+01
  -5.7448312e+01  -7.0423188e+01  -2.2996185e+01
  -3.7928070e+01  -7.0330774e+01  -2.1499470e+01
  -1.8309556e+01  -7.0847075e+01  -2.0712065e+01
   1.0820855e+00  -7.0926044e+01  -1.8271694e+01
   2.1995551e+01  -7.0655935e+01  -1.7370420e+01
   4.2167540e+01  -7.1001998e+01  -1.5626936e+01
   6.2398818e+01  -7.0196706e+01  -1.3253214e+01
   8.2286056e+01  -7.0939189e+01  -1.1479349e+01
  -7.7869458e+01  -5.6442662e+01  -1.1022189e+01
  -5.7568491e+01  -5.6586126e+01  -9.4663835e+00
  -3.8494080e+01  -5.6654180e+01  -8.2719140e+00
  -1.8090271e+01  -5.6495721e+01  -6.7268210e+00
   7.4333607e-01  -5.6098586e+01  -4.9055580e+00
   2.2147489e+01  -5.6988329e+01  -4.4787640e+00
   4.1613209e+01  -5.5676218e+01  -2.5139942e+00
   6.2150564e+01  -5.5682613e+01  -3.6941890e-01
   8.0633062e+01  -5.4964569e+01   2.1046683e+00
  -7.9142690e+01  -3.9436975e+01  -1.5822301e+00
  -6.0400174e+01  -3.9149584e+01   3.9837532e-01
  -4.0105862e+01  -3.8677431e+01   2.0775668e+00
  -2.0917996e+01  -3.9263895e+01   2.2720080e+00
  -5.5333653e-01  -3.9263286e+01   3.3419938e+00
   2.0632507e+01  -3.8679900e+01   4.6287363e+00
   3.9659621e+01  -3.8537509e+01   6.6917977e+00
   5.9057891e+01  -3.8215591e+01   9.1745534e+00
   7.9108680e+01  -3.7802003e+01   1.2598289e+01
  -8.0183715e+01  -2.0060074e+01   5.2424226e+00
  -6.0023049e+01  -1.9807515e+01   6.6983152e+00
  -4.0463860e+01  -2.0018235e+01   7.7319424e+00
  -2.0646125e+01  -1.9550082e+01   8.0483854e+00
  -8.7013579e-01  -1.9823593e+01   8.5193751e+00
   1.8859771e+01  -1.9428872e+01   9.6048046e+00
   3.9352379e+01  -2.0043326e+01   1.1672790e+01
   5.9003133e+01  -1.8885351e+01   1.4882908e+01
   7.8635354e+01  -1.8956674e+01   1.7830803e+01
  -8.0153898e+01  -4.7325796e-01   7.8722122e+00
  -6.0210300e+01  -9.5636999e-01   8.6011255e+00
  -4.1179234e+01  -1.3531030e-01   9.3579943e+00
  -2.0890868e+01   2.4711066e-01   9.5363878e+00
  -1.6724411e+00   5.6427926e-01   9.7425870e+00
   1.9292929e+01   3.7222906e-01   1.0793722e+01
   3.8778292e+01   4.1252177e-01   1.2894838e+01
   5.8942058e+01   5.5712270e-01   1.5861534e+01
   7.9192551e+01   8.7758773e-01   1.9240401e+01
  -8.0062141e+01   1.8373392e+01   5.5481105e+00
  -6.0470352e+01   1.9295349e+01   6.8635800e+00
  -4.0246434e+01   1.9435904e+01   7.9465921e+00
  -2.1935246e+01   1.9948417e+01   7.8877268e+00
  -1.8099524e+00   1.9563662e+01   8.1877618e+00
   1.9147751e+01   1.9892789e+01   9.0191350e+00
   3.9079343e+01   2.0426146e+01   1.1176621e+01
   5.8208001e+01   2.0913368e+01   1.3739342e+01
   7.9108240e+01   2.1488605e+01   1.6291017e+01
  -7.9579880e+01   3.7859279e+01  -1.3261982e+00
  -6.0918936e+01   3.7773548e+01  -4.1604052e-01
  -3.9645885e+01   3.8997734e+01   1.1866754e+00
  -2.0530612e+01   3.8454945e+01   2.2606824e+00
  -6.8094668e-01   3.8493744e+01   2.5751182e+00
   1.9076521e+01   3.8931363e+01   3.9433509e+00
   3.8609294e+01   4.0060753e+01   6.1364874e+00
   5.8952274e+01   4.0237537e+01   7.8030493e+00
   7.9659438e+01   3.9509127e+01   9.5764089e+00
  -7.9975274e+01   5.4676091e+01  -1.2983499e+01
  -5.9902047e+01   5.4867750e+01  -1.1250522e+01
  -4.0189977e+01   5.4507998e+01  -9.8373212e+00
  -1.9814443e+01   5.5588584e+01  -8.8735523e+00
   1.4775861e-01   5.6627873e+01  -8.0700286e+00
   1.9285935e+01   5.6656148e+01  -6.5353017e+00
   3.8775261e+01   5.6873944e+01  -4.9643486e+00
   5.8832611e+01   5.7272847e+01  -2.1820416e+00
   7.9784182e+01   5.7071044e+01  -1.1767999e+00
  -7.9777659e+01   6.8263782e+01  -2.5946237e+01
  -5.8726050e+01   6.9931134e+01  -2.5261397e+01
  -3.9592636e+01   7.0037919e+01  -2.3250626e+01
  -1.9448269e+01   7.0091624e+01  -2.2420842e+01
   5.4951464e-01   7.0861237e+01  -2.0770505e+01
   1.9610902e+01   7.0956680e+01  -1.9209472e+01
   4.0181756e+01   7.1032963e+01  -1.6796459e+01
   6.0157608e+01   7.0675390e+01  -1.6100209e+01
   7.9952764e+01   7.3184103e+01  -1.2257119e+01
