  -8.1060948e+01  -7.2051597e+01   3.9984179e+00
  -6.1559693e+01  -7.0925508e+01   3.8515261e+00
  -4.2024776e+01  -7.1130668e+01   5.1295732e+00
  -2.2406722e+01  -7.1796481e+01   4.4503595e+00
  -2.8705212e+00  -7.1266920e+01   4.6824313e+00
   1.8052377e+01  -7.1036413e+01   4.0210027e+00
   3.8275405e+01  -7.1068447e+01   5.0682492e+00
   5.8578315e+01  -6.9384150e+01   5.8049287e+00
   7.7835401e+01  -6.9453087e+01   5.6088096e+00
  -8.1369797e+01  -5.4069704e+01   1.2756391e+01
  -6.1014785e+01  -5.4014990e+01   1.3246822e+01
  -4.1909838e+01  -5.4449588e+01   1.3523638e+01
  -2.1448208e+01  -5.4478610e+01   1.3744423e+01
  -2.5317090e+00  -5.3894662e+01   1.3811630e+01
   1.8879580e+01  -5.4709291e+01   1.3879962e+01
   3.8385889e+01  -5.3427995e+01   1.5415656e+01
   5.8917462e+01  -5.3939353e+01   1.7554636e+01
   7.7512330e+01  -5.3176919e+01   1.8929034e+01
  -8.1326686e+01  -3.4325590e+01   1.5514067e+01
  -6.2495184e+01  -3.3681099e+01   1.6010523e+01
  -4.2129815e+01  -3.3366584e+01   1.6244125e+01
  -2.2965496e+01  -3.4478264e+01   1.6465466e+01
  -2.5742817e+00  -3.4573420e+01   1.6696902e+01
   1.8626242e+01  -3.4149181e+01   1.7789534e+01
   3.7679923e+01  -3.4338613e+01   1.9586454e+01
   5.7071369e+01  -3.4412349e+01   2.2141241e+01
   7.7860687e+01  -3.4104364e+01   2.5494837e+01
  -8.1504975e+01  -1.4167417e+01   1.1422591e+01
  -6.1428351e+01  -1.3496999e+01   1.3684354e+01
  -4.1853473e+01  -1.3975141e+01   1.4204198e+01
  -2.2030607e+01  -1.3874040e+01   1.4529265e+01
  -2.2691458e+00  -1.4429404e+01   1.5279341e+01
   1.7442901e+01  -1.4251700e+01   1.6695968e+01
   3.7893085e+01  -1.5191853e+01   1.9042705e+01
   5.7618573e+01  -1.4266416e+01   2.1843879e+01
   7.7238677e+01  -1.4560642e+01   2.4857882e+01
  -8.0551330e+01   4.0910140e+00   3.9205696e+00
  -6.0634597e+01   3.6815636e+00   5.7289556e+00
  -4.1683186e+01   4.8121947e+00   7.4593094e+00
  -2.1461446e+01   5.2171174e+00   9.1064746e+00
  -2.3059781e+00   5.4874069e+00   1.0683194e+01
   1.8587574e+01   5.1477154e+00   1.2691328e+01
   3.8043491e+01   4.9130242e+00   1.5038222e+01
   5.8240122e+01   4.7599565e+00   1.7771773e+01
   7.8611160e+01   4.7641524e+00   2.0345235e+01
  -7.8430632e+01   1.8143560e+01  -8.6744560e+00
  -5.9270280e+01   1.9828779e+01  -6.5439770e+00
  -3.9306064e+01   2.0709148e+01  -3.8336422e+00
  -2.1184077e+01   2.1953785e+01  -1.4650579e+00
  -1.2360260e+00   2.2015046e+01   1.2436338e+00
   1.9562232e+01   2.2641012e+01   3.9017259e+00
   3.9437275e+01   2.2981797e+01   6.5614464e+00
   5.8554878e+01   2.3367055e+01   9.2221479e+00
   7.9481418e+01   2.3640862e+01   1.1602667e+01
  -7.6589759e+01   3.2472357e+01  -2.3455702e+01
  -5.8304216e+01   3.3168884e+01  -2.1232280e+01
  -3.7158172e+01   3.4951005e+01  -1.8709072e+01
  -1.8333163e+01   3.5189683e+01  -1.5350716e+01
   1.2925810e+00   3.6028288e+01  -1.2480782e+01
   2.0812002e+01   3.7125307e+01  -9.2854958e+00
   4.0138233e+01   3.8839222e+01  -5.9427555e+00
   6.0207687e+01   3.9866848e+01  -2.3641402e+00
   8.0794843e+01   3.9312470e+01   5.2094264e-01
  -7.5606023e+01   4.4640385e+01  -3.9008444e+01
  -5.5565064e+01   4.5471550e+01  -3.7099645e+01
  -3.5871813e+01   4.5896985e+01  -3.4230787e+01
  -1.5592661e+01   4.6804979e+01  -3.1952530e+01
   4.0158742e+00   4.9167027e+01  -2.8767979e+01
   2.2930188e+01   5.0095509e+01  -2.5603701e+01
   4.1991686e+01   5.1873699e+01  -2.1622933e+01
   6.1447275e+01   5.4206097e+01  -1.6500667e+01
   8.2031778e+01   5.5155089e+01  -1.2576744e+01
  -7.4128533e+01   5.6843287e+01  -5.2016416e+01
  -5.3088837e+01   5.8630865e+01  -5.2761500e+01
  -3.3633128e+01   5.9118838e+01  -4.9775011e+01
  -1.3739553e+01   5.9166109e+01  -4.7372312e+01
   6.0097818e+00   6.1069073e+01  -4.4278810e+01
   2.4823702e+01   6.1899753e+01  -4.0942825e+01
   4.5046307e+01   6.3010856e+01  -3.6606906e+01
   6.3760465e+01   6.6705020e+01  -3.0625206e+01
   8.3465598e+01   6.9052334e+01  -2.6253816e+01
