  -7.9914169e+01  -6.3575088e+01  -3.4067029e+01
  -6.0418002e+01  -6.2909391e+01  -3.3044790e+01
  -4.0902988e+01  -6.3945229e+01  -3.1870155e+01
  -2.1375402e+01  -6.4749195e+01  -3.1631920e+01
  -1.8592031e+00  -6.4762046e+01  -3.0575875e+01
   1.9069632e+01  -6.5154431e+01  -3.0278884e+01
   3.9310682e+01  -6.5081740e+01  -2.9676231e+01
   5.9514181e+01  -6.5814370e+01  -2.7055245e+01
   7.8586651e+01  -6.7159438e+01  -2.7117499e+01
  -8.0499073e+01  -5.1628854e+01  -1.8032963e+01
  -6.0138813e+01  -5.1485366e+01  -1.7934897e+01
  -4.1121144e+01  -5.2721211e+01  -1.6497724e+01
  -2.0693108e+01  -5.3433729e+01  -1.5540890e+01
  -1.7957509e+00  -5.3536203e+01  -1.4511880e+01
   1.9557927e+01  -5.5296455e+01  -1.4328792e+01
   3.9031280e+01  -5.4635386e+01  -1.2127042e+01
   5.9531136e+01  -5.6191801e+01  -1.0199428e+01
   7.8167955e+01  -5.6058724e+01  -9.2556623e+00
  -8.0695894e+01  -3.6131189e+01  -5.4942114e+00
  -6.2185745e+01  -3.6846986e+01  -3.6232015e+00
  -4.1838723e+01  -3.7072048e+01  -2.7013674e+00
  -2.2717686e+01  -3.8751604e+01  -2.3535146e+00
  -2.3705223e+00  -3.9658268e+01  -1.3361096e+00
   1.8812607e+01  -4.0160770e+01   2.7171086e-02
   3.7843042e+01  -4.1033119e+01   1.8681318e+00
   5.7277319e+01  -4.1956239e+01   3.8724579e+00
   7.8305877e+01  -4.1803127e+01   5.0185257e+00
  -8.1179377e+01  -1.7773545e+01   3.7733164e+00
  -6.1047529e+01  -1.8639316e+01   5.3841471e+00
  -4.1493970e+01  -1.9705231e+01   5.8278008e+00
  -2.1705386e+01  -2.0335304e+01   6.8655214e+00
  -1.9869181e+00  -2.1688953e+01   7.7234522e+00
   1.7712245e+01  -2.2443455e+01   9.1294792e+00
   3.8165552e+01  -2.4167056e+01   1.0944000e+01
   5.7954022e+01  -2.4227041e+01   1.3436145e+01
   7.7664900e+01  -2.5318975e+01   1.5535728e+01
  -8.0281516e+01   1.3509471e+00   8.6730831e+00
  -6.0359482e+01  -1.8156286e-01   9.6101803e+00
  -4.1296223e+01  -1.3222050e-01   9.7450290e+00
  -2.1016805e+01  -7.6220289e-01   1.0124738e+01
  -1.8215572e+00  -1.5331839e+00   1.0787400e+01
   1.9088612e+01  -2.8705509e+00   1.2077659e+01
   3.8563467e+01  -3.9022454e+00   1.4017077e+01
   5.8734734e+01  -5.0513389e+00   1.6700213e+01
   7.9114176e+01  -5.8009982e+00   1.9091501e+01
  -7.9230335e+01   2.0311378e+01   8.6169686e+00
  -5.9638900e+01   2.0124391e+01   1.0216660e+01
  -3.9399636e+01   1.9407264e+01   1.0456432e+01
  -2.1087121e+01   1.9026290e+01   1.0725468e+01
  -1.0182392e+00   1.7509284e+01   1.1177341e+01
   1.9913069e+01   1.6712385e+01   1.2304348e+01
   3.9863628e+01   1.6143559e+01   1.4268836e+01
   5.9010491e+01   1.5426426e+01   1.6633968e+01
   7.9873447e+01   1.5002269e+01   1.9500863e+01
  -7.8240999e+01   4.0087415e+01   3.4111250e+00
  -5.9423719e+01   3.9428754e+01   5.5333727e+00
  -3.8078090e+01   3.9694010e+01   6.5291163e+00
  -1.9014216e+01   3.7993158e+01   7.2485163e+00
   7.8154421e-01   3.7002925e+01   8.3696506e+00
   2.0523382e+01   3.6249757e+01   9.8235075e+00
   4.0188758e+01   3.5896623e+01   1.0696926e+01
   6.0430499e+01   3.5322172e+01   1.3263525e+01
   8.1087046e+01   3.3669186e+01   1.5006154e+01
  -7.7483447e+01   5.8019863e+01  -6.0356195e+00
  -5.7430520e+01   5.7003063e+01  -4.3561482e+00
  -3.7690381e+01   5.6806440e+01  -1.8019853e+00
  -1.7276124e+01   5.6106847e+01  -1.9681069e+00
   2.6794039e+00   5.6029130e+01  -5.5879820e-01
   2.1791065e+01   5.5389881e+01   1.1621820e+00
   4.1264245e+01   5.4503094e+01   2.6977668e+00
   6.1431586e+01   5.3160134e+01   3.9910076e+00
   8.2312428e+01   5.1934022e+01   5.5741757e+00
  -7.6622768e+01   7.3359396e+01  -1.6836305e+01
  -5.5549647e+01   7.4197130e+01  -1.5555234e+01
  -3.6033101e+01   7.3957998e+01  -1.2961262e+01
  -1.5907986e+01   7.3139349e+01  -1.2068769e+01
   4.1156949e+00   7.1637170e+01  -1.2220114e+01
   2.3082859e+01   7.1297599e+01  -9.7882835e+00
   4.3681774e+01   7.0355730e+01  -7.8425055e+00
   6.3594644e+01   6.9077686e+01  -6.6212366e+00
   8.3351789e+01   6.8118335e+01  -5.3537800e+00
