  -8.1512299e+01  -7.4809038e+01   1.2229929e+01
  -6.2030127e+01  -7.4943285e+01   1.0810184e+01
  -4.2540030e+01  -7.5275587e+01   1.2630679e+01
  -2.2931842e+01  -7.6411252e+01   1.2674329e+01
  -3.3883681e+00  -7.6202232e+01   1.2754052e+01
   1.7472152e+01  -7.6884336e+01   1.4376315e+01
   3.7720552e+01  -7.6757433e+01   1.4142188e+01
   5.8085411e+01  -7.6151000e+01   1.4843913e+01
   7.8063582e+01  -7.7335923e+01   1.4340195e+01
  -8.1127738e+01  -5.5233770e+01   1.2444561e+01
  -6.0919908e+01  -5.5742946e+01   1.2966261e+01
  -4.1838827e+01  -5.6295712e+01   1.3899711e+01
  -2.1379697e+01  -5.6617885e+01   1.4118950e+01
  -2.4561904e+00  -5.6347128e+01   1.4202793e+01
   1.8858645e+01  -5.7893665e+01   1.5751209e+01
   3.8378456e+01  -5.6518480e+01   1.7008993e+01
   5.8903037e+01  -5.7243999e+01   1.9153150e+01
   7.7541186e+01  -5.7183760e+01   2.0077920e+01
  -8.0900088e+01  -3.5343615e+01   1.1115441e+01
  -6.2075620e+01  -3.5220807e+01   1.2070227e+01
  -4.1709089e+01  -3.5092305e+01   1.2369613e+01
  -2.2561862e+01  -3.6484847e+01   1.2391716e+01
  -2.1733141e+00  -3.6890131e+01   1.2475871e+01
   1.9011683e+01  -3.6750278e+01   1.3894441e+01
   3.8054509e+01  -3.7006430e+01   1.5795161e+01
   5.7436725e+01  -3.7167791e+01   1.8415129e+01
   7.8297158e+01  -3.7061407e+01   2.1307918e+01
  -8.0797616e+01  -1.5289526e+01   6.5386544e+00
  -6.0646939e+01  -1.5308204e+01   8.1466796e+00
  -4.1090176e+01  -1.5880510e+01   9.0848610e+00
  -2.1265398e+01  -1.6062002e+01   9.1693707e+00
  -1.5042267e+00  -1.6917015e+01   9.5585232e+00
   1.8206462e+01  -1.7014806e+01   1.1001570e+01
   3.8658630e+01  -1.8023289e+01   1.3302191e+01
   5.8401844e+01  -1.7180410e+01   1.6002737e+01
   7.8045873e+01  -1.7656343e+01   1.8832033e+01
  -7.9751960e+01   3.1400237e+00  -5.1955616e-01
  -5.9879226e+01   2.4781736e+00   1.6600162e+00
  -4.0858789e+01   3.0659553e+00   2.8027885e+00
  -2.0604666e+01   3.1107535e+00   4.0535351e+00
  -1.4080741e+00   3.0173602e+00   5.0400389e+00
   1.9487648e+01   2.3654638e+00   6.9459014e+00
   3.8951973e+01   2.0631621e+00   9.2140244e+00
   5.9213705e+01   1.7152873e+00   1.1391367e+01
   7.9603500e+01   1.4437174e+00   1.3497538e+01
  -7.8543321e+01   1.9842861e+01  -9.4727952e+00
  -5.9043650e+01   2.0770764e+01  -7.1661814e+00
  -3.8840866e+01   2.0639171e+01  -5.7414874e+00
  -2.0641260e+01   2.1298998e+01  -3.7654622e+00
  -6.3329286e-01   2.0876942e+01  -1.5817426e+00
   2.0278532e+01   2.0700000e+01   5.8103010e-02
   4.0228617e+01   2.0809356e+01   2.1049847e+00
   5.9405503e+01   2.0937390e+01   4.3278523e+00
   8.0413142e+01   2.0793036e+01   5.8510767e+00
  -7.6746567e+01   3.7189030e+01  -2.0566513e+01
  -5.8649971e+01   3.7055410e+01  -1.8536900e+01
  -3.7423739e+01   3.8328212e+01  -1.6409754e+01
  -1.8423950e+01   3.7546285e+01  -1.4121010e+01
   1.2739238e+00   3.7784765e+01  -1.1662043e+01
   2.0991807e+01   3.7758713e+01  -9.7579706e+00
   4.0503693e+01   3.8709270e+01  -7.3090255e+00
   6.0778025e+01   3.8861920e+01  -4.9481609e+00
   8.1270963e+01   3.8180912e+01  -2.3376285e+00
  -7.6923383e+01   5.3941167e+01  -3.2321888e+01
  -5.6877322e+01   5.3418477e+01  -3.0358050e+01
  -3.7128397e+01   5.3364893e+01  -2.7865548e+01
  -1.6729959e+01   5.3436576e+01  -2.6789681e+01
   3.0812873e+00   5.4610449e+01  -2.4269399e+01
   2.2144512e+01   5.4735364e+01  -2.1988207e+01
   4.1430788e+01   5.5556675e+01  -1.8871446e+01
   6.1386897e+01   5.6074204e+01  -1.5453330e+01
   8.2282965e+01   5.5251458e+01  -1.3811091e+01
  -7.4675361e+01   6.8085514e+01  -4.4470173e+01
  -5.5513960e+01   6.9499834e+01  -4.2617844e+01
  -3.5945361e+01   6.9550421e+01  -4.0438578e+01
  -1.5836551e+01   6.8780737e+01  -3.9201501e+01
   4.0871659e+00   6.9281037e+01  -3.6747428e+01
   2.2992008e+01   6.9796040e+01  -3.3897143e+01
   4.3264492e+01   7.0812260e+01  -2.9776199e+01
   6.2963712e+01   7.1397670e+01  -2.6422792e+01
   8.2003952e+01   7.2230240e+01  -2.3510352e+01
