  -7.6362180e+01  -6.8295332e+01  -3.1725558e+01
  -5.6830511e+01  -6.8424579e+01  -3.1432486e+01
  -3.7406335e+01  -6.8835201e+01  -2.9019749e+01
  -1.7852743e+01  -6.9616719e+01  -2.7340776e+01
   1.5360157e+00  -6.9058556e+01  -2.4940378e+01
   2.2380625e+01  -6.9288754e+01  -2.3014877e+01
   4.2563438e+01  -6.9088726e+01  -2.1376989e+01
   6.2596049e+01  -6.9780918e+01  -1.7661746e+01
   8.1994751e+01  -7.0738796e+01  -1.5831663e+01
  -7.7663341e+01  -5.4660987e+01  -1.9925459e+01
  -5.7456384e+01  -5.5247028e+01  -1.7495267e+01
  -3.8523882e+01  -5.6044499e+01  -1.5007508e+01
  -1.8182317e+01  -5.5922192e+01  -1.2786332e+01
   5.9736881e-01  -5.5620944e+01  -1.0459936e+01
   2.1934967e+01  -5.7031122e+01  -9.1072111e+00
   4.1349975e+01  -5.5590618e+01  -6.7665718e+00
   6.1778162e+01  -5.6202277e+01  -3.8174590e+00
   8.0295745e+01  -5.5233384e+01  -1.7198968e+00
  -7.8977096e+01  -3.9151919e+01  -7.5200091e+00
  -6.0267979e+01  -3.8788436e+01  -5.4741834e+00
  -4.0158038e+01  -3.8552537e+01  -3.0365744e+00
  -2.1024952e+01  -3.9469875e+01  -1.7561552e+00
  -7.1230837e-01  -3.9770365e+01   2.4423302e-02
   2.0430990e+01  -3.9317824e+01   1.9197263e+00
   3.9463273e+01  -3.9338860e+01   3.9394619e+00
   5.8794182e+01  -3.9421283e+01   6.9176698e+00
   7.9538898e+01  -3.9233737e+01   1.0545175e+01
  -8.0290114e+01  -2.0345303e+01   7.0866563e-01
  -6.0267959e+01  -2.0310670e+01   3.0416394e+00
  -4.0749290e+01  -2.0699530e+01   4.6369435e+00
  -2.0938470e+01  -2.0345396e+01   5.3209926e+00
  -1.1942185e+00  -2.0757953e+01   6.4960365e+00
   1.8478390e+01  -2.0557727e+01   8.3806000e+00
   3.8925712e+01  -2.1450607e+01   1.0770343e+01
   5.8521961e+01  -2.0711534e+01   1.4408843e+01
   7.8085595e+01  -2.1106682e+01   1.7759567e+01
  -8.0455544e+01  -1.2309650e+00   5.7261134e+00
  -6.0475932e+01  -1.6955300e+00   6.5707671e+00
  -4.1458309e+01  -1.0198341e+00   7.7117801e+00
  -2.1178656e+01  -7.2947672e-01   8.3805529e+00
  -1.9698185e+00  -4.9341075e-01   9.0557310e+00
   1.8941320e+01  -8.7754713e-01   1.0862727e+01
   3.8360956e+01  -1.1393595e+00   1.3490444e+01
   5.8424199e+01  -1.4267691e+00   1.7065819e+01
   7.8588913e+01  -1.4764037e+00   2.0936706e+01
  -8.0116010e+01   1.7663451e+01   3.8574657e+00
  -6.0670642e+01   1.8631322e+01   6.5701609e+00
  -4.0472599e+01   1.8596422e+01   8.0659546e+00
  -2.2176259e+01   1.9037528e+01   8.8502336e+00
  -2.0715088e+00   1.8556584e+01   9.7630469e+00
   1.8847143e+01   1.8718602e+01   1.1315012e+01
   3.8747880e+01   1.8904880e+01   1.3791611e+01
   5.7811072e+01   1.9042522e+01   1.6838945e+01
   7.8615473e+01   1.9328649e+01   2.0118723e+01
  -7.9390383e+01   3.7948326e+01  -3.9430904e-02
  -6.0956883e+01   3.7912689e+01   1.7968109e+00
  -3.9789394e+01   3.8967099e+01   4.4202587e+00
  -2.0709875e+01   3.8147131e+01   5.8835918e+00
  -8.8828927e-01   3.8101527e+01   6.9846306e+00
   1.8863948e+01   3.8218270e+01   8.4868269e+00
   3.8447084e+01   3.8849145e+01   1.0414873e+01
   5.8682763e+01   3.8902224e+01   1.3090692e+01
   7.9296749e+01   3.8039434e+01   1.5694770e+01
  -7.9463861e+01   5.6438329e+01  -8.8126037e+00
  -5.9405064e+01   5.6133045e+01  -6.9348720e+00
  -3.9688218e+01   5.5936420e+01  -4.2067187e+00
  -1.9316453e+01   5.6580593e+01  -2.8520568e+00
   6.4585904e-01   5.7259513e+01  -1.7293558e+00
   1.9777467e+01   5.7542051e+01  -1.3946325e-01
   3.9190572e+01   5.7566825e+01   2.2014555e+00
   5.9365899e+01   5.6677583e+01   3.7386722e+00
   8.0176573e+01   5.6371077e+01   6.3542781e+00
  -7.7986023e+01   7.1109787e+01  -2.0442791e+01
  -5.7963794e+01   7.2990101e+01  -1.7554637e+01
  -3.8387855e+01   7.3068361e+01  -1.5443162e+01
  -1.8291717e+01   7.3092265e+01  -1.3820919e+01
   1.7429565e+00   7.3769554e+01  -1.2646019e+01
   2.0812926e+01   7.3378223e+01  -1.1244046e+01
   4.1351272e+01   7.3252859e+01  -8.5702595e+00
   6.1219856e+01   7.2374658e+01  -6.9692747e+00
   8.1349401e+01   7.2375908e+01  -4.8216954e+00
