  -8.0749608e+01  -7.3199177e+01   1.9048762e+01
  -6.1419765e+01  -7.2053107e+01   2.1624096e+01
  -4.1870471e+01  -7.1693121e+01   2.2616086e+01
  -2.2239142e+01  -7.2274285e+01   2.2830229e+01
  -2.7119557e+00  -7.1686665e+01   2.3414272e+01
   1.8201977e+01  -7.1469034e+01   2.4318914e+01
   3.8418006e+01  -7.0516428e+01   2.5006894e+01
   5.8668894e+01  -6.9612118e+01   2.7168246e+01
   7.7951573e+01  -6.9887169e+01   2.5818773e+01
  -8.1040484e+01  -5.3211235e+01   1.9785936e+01
  -6.0819718e+01  -5.2715869e+01   2.2119524e+01
  -4.1755117e+01  -5.2720854e+01   2.3463213e+01
  -2.1295894e+01  -5.2619462e+01   2.3834397e+01
  -2.3976137e+00  -5.1608014e+01   2.3941257e+01
   1.8959073e+01  -5.2465874e+01   2.5447111e+01
   3.8377966e+01  -5.0466692e+01   2.7292662e+01
   5.8831605e+01  -5.0430456e+01   3.0126300e+01
   7.7422493e+01  -4.9654451e+01   3.1546212e+01
  -8.1066939e+01  -3.3531705e+01   1.6819792e+01
  -6.2346105e+01  -3.2477778e+01   1.8745124e+01
  -4.2011299e+01  -3.1797126e+01   1.9711619e+01
  -2.2841904e+01  -3.2822341e+01   1.9909614e+01
  -2.4593012e+00  -3.2397588e+01   2.0392631e+01
   1.8711083e+01  -3.1559706e+01   2.1788631e+01
   3.7718342e+01  -3.1204184e+01   2.4003419e+01
   5.7038713e+01  -3.0613443e+01   2.6992542e+01
   7.7808184e+01  -2.9522254e+01   3.0305484e+01
  -8.1153408e+01  -1.4640944e+01   8.6800515e+00
  -6.1103503e+01  -1.3676684e+01   1.1069065e+01
  -4.1632400e+01  -1.3424421e+01   1.3187367e+01
  -2.1829518e+01  -1.2983374e+01   1.4031911e+01
  -2.0781421e+00  -1.2896085e+01   1.5155262e+01
   1.7593106e+01  -1.2226372e+01   1.6943192e+01
   3.8026910e+01  -1.2569227e+01   1.9578186e+01
   5.7733527e+01  -1.1037780e+01   2.2243106e+01
   7.7346273e+01  -1.0617748e+01   2.5289912e+01
  -7.9187790e+01   1.9691858e+00  -1.8461052e+00
  -6.0303965e+01   2.1681301e+00   7.0933356e-01
  -4.1402949e+01   3.5894606e+00   2.7488943e+00
  -2.1251535e+01   4.6362026e+00   4.8984907e+00
  -2.1719508e+00   5.8109328e+00   6.9185173e+00
   1.8666088e+01   6.1116777e+00   9.4432329e+00
   3.8071192e+01   6.5399461e+00   1.2155101e+01
   5.8221495e+01   7.0906152e+00   1.5165367e+01
   7.8460432e+01   8.0193709e+00   1.8426108e+01
  -7.8671753e+01   1.6019890e+01  -1.4610016e+01
  -5.9121694e+01   1.7196384e+01  -1.2927845e+01
  -3.9008862e+01   1.7782947e+01  -1.0619272e+01
  -2.0985722e+01   1.9690738e+01  -7.9561040e+00
  -1.1317946e+00   2.0798600e+01  -4.8160841e+00
   1.9598475e+01   2.2085266e+01  -1.8792057e+00
   3.9442892e+01   2.3029223e+01   8.6226302e-01
   5.8491401e+01   2.4128171e+01   3.8045530e+00
   7.9383336e+01   2.4958424e+01   6.3540018e+00
  -7.6173217e+01   2.9121735e+01  -3.0398857e+01
  -5.8254629e+01   3.0182327e+01  -2.7936223e+01
  -3.6996072e+01   3.1376740e+01  -2.6107326e+01
  -1.8155877e+01   3.1957883e+01  -2.2708640e+01
   1.3170392e+00   3.3938017e+01  -1.9392892e+01
   2.0720305e+01   3.5878856e+01  -1.5904694e+01
   4.0026407e+01   3.8067258e+01  -1.2726656e+01
   6.0080676e+01   3.9529225e+01  -9.2146163e+00
   8.0621345e+01   3.9678779e+01  -5.9710672e+00
  -7.5395172e+01   4.2021452e+01  -4.6268516e+01
  -5.5836521e+01   4.3364225e+01  -4.3135635e+01
  -3.6101111e+01   4.3339404e+01  -4.0888616e+01
  -1.5942556e+01   4.5178048e+01  -3.8148009e+01
   3.7824530e+00   4.7279976e+01  -3.5555485e+01
   2.2612884e+01   4.9147153e+01  -3.2306715e+01
   4.1713624e+01   5.1063103e+01  -2.8586497e+01
   6.1311896e+01   5.3238629e+01  -2.3963460e+01
   8.1792497e+01   5.4931823e+01  -1.9756605e+01
  -7.3992149e+01   5.5171590e+01  -5.9602772e+01
  -5.3832838e+01   5.5292224e+01  -5.9817995e+01
  -3.4518324e+01   5.6804188e+01  -5.6304399e+01
  -1.4598968e+01   5.7596762e+01  -5.3291412e+01
   5.3252667e+00   5.8980597e+01  -5.1208834e+01
   2.3972290e+01   6.0962650e+01  -4.7448196e+01
   4.4174400e+01   6.2600403e+01  -4.3184277e+01
   6.3559783e+01   6.4790437e+01  -3.8818730e+01
   8.3335640e+01   6.6547125e+01  -3.4489677e+01
