  -7.9317711e+01  -7.5267786e+01   5.7186104e+00
  -5.9868387e+01  -7.3609678e+01   4.9681883e+00
  -4.0427047e+01  -7.3738797e+01   7.2716997e+00
  -2.0876173e+01  -7.4498083e+01   8.9920140e+00
  -1.3667646e+00  -7.3471737e+01   9.5638656e+00
   1.9538976e+01  -7.3301928e+01   1.0649909e+01
   3.9768641e+01  -7.2613099e+01   1.1245551e+01
   5.9988369e+01  -7.1325210e+01   1.3502010e+01
   7.8921107e+01  -7.2069259e+01   1.6079922e+01
  -8.0122524e+01  -5.5860262e+01   1.0498382e+01
  -5.9788962e+01  -5.5673134e+01   1.1538394e+01
  -4.0748822e+01  -5.5761479e+01   1.3190602e+01
  -2.0320793e+01  -5.5383020e+01   1.4322086e+01
  -1.4642548e+00  -5.4530650e+01   1.5694635e+01
   1.9933677e+01  -5.5284474e+01   1.6514290e+01
   3.9362014e+01  -5.3480010e+01   1.8458463e+01
   5.9807370e+01  -5.3574444e+01   2.1349957e+01
   7.8283085e+01  -5.2489434e+01   2.3739540e+01
  -8.0526252e+01  -3.5963349e+01   1.1675896e+01
  -6.1746856e+01  -3.5254387e+01   1.3131561e+01
  -4.1414669e+01  -3.4533464e+01   1.4123600e+01
  -2.2254498e+01  -3.5255523e+01   1.5084038e+01
  -1.8884120e+00  -3.5003841e+01   1.6095685e+01
   1.9274151e+01  -3.4194799e+01   1.7621267e+01
   3.8305464e+01  -3.3991912e+01   1.9640062e+01
   5.7594183e+01  -3.3610122e+01   2.2858779e+01
   7.8236726e+01  -3.2564459e+01   2.6899719e+01
  -8.1064886e+01  -1.5616284e+01   8.7042402e+00
  -6.1023111e+01  -1.5006817e+01   1.1271663e+01
  -4.1448166e+01  -1.5153415e+01   1.1960663e+01
  -2.1650980e+01  -1.4663116e+01   1.2905631e+01
  -1.9003801e+00  -1.4914889e+01   1.4017752e+01
   1.7797582e+01  -1.4395728e+01   1.5542209e+01
   3.8250117e+01  -1.4906787e+01   1.7998573e+01
   5.7903161e+01  -1.3533122e+01   2.1108038e+01
   7.7332082e+01  -1.3098663e+01   2.5163600e+01
  -8.0386733e+01   3.1687908e+00   2.6033300e+00
  -6.0592071e+01   2.7408453e+00   4.6492692e+00
  -4.1606020e+01   3.8783023e+00   5.9394214e+00
  -2.1384041e+01   4.4490271e+00   7.5336997e+00
  -2.2623119e+00   4.9977628e+00   9.4176886e+00
   1.8654202e+01   4.9463845e+00   1.1202438e+01
   3.8094710e+01   5.1324726e+00   1.3677859e+01
   5.8242176e+01   5.4350669e+00   1.6741793e+01
   7.8440490e+01   6.1726860e+00   2.0359240e+01
  -7.9381279e+01   1.8832064e+01  -8.0857764e+00
  -5.9877634e+01   2.0064202e+01  -5.9625019e+00
  -3.9819541e+01   2.1093584e+01  -3.3523585e+00
  -2.1603170e+01   2.1990594e+01  -1.6421120e+00
  -1.6183599e+00   2.1980415e+01   7.8126537e-01
   1.9228010e+01   2.2731620e+01   2.9924640e+00
   3.9073259e+01   2.3436762e+01   5.7989624e+00
   5.8237646e+01   2.3874058e+01   8.0892763e+00
   7.9110580e+01   2.4659298e+01   1.0803303e+01
  -7.7599924e+01   3.3935068e+01  -2.2082724e+01
  -5.8932080e+01   3.4515664e+01  -1.9560264e+01
  -3.8280602e+01   3.6611110e+01  -1.6974413e+01
  -1.9320155e+01   3.6535792e+01  -1.4265631e+01
   3.8215653e-01   3.7038131e+01  -1.1883154e+01
   1.9964873e+01   3.8007225e+01  -9.0548747e+00
   3.9483150e+01   3.9225306e+01  -6.7816059e+00
   5.9731201e+01   3.9744673e+01  -4.2533271e+00
   8.0303444e+01   3.9472316e+01  -1.2250144e+00
  -7.6661965e+01   4.7191384e+01  -3.7646930e+01
  -5.7273887e+01   4.8191507e+01  -3.4421405e+01
  -3.7559212e+01   4.8644072e+01  -3.1708057e+01
  -1.7184183e+01   4.9033302e+01  -3.0306066e+01
   2.6002201e+00   5.0673230e+01  -2.7835578e+01
   2.1611421e+01   5.1416508e+01  -2.5257251e+01
   4.0912673e+01   5.2593593e+01  -2.2354614e+01
   6.0899801e+01   5.3250096e+01  -1.9148157e+01
   8.1463945e+01   5.4123768e+01  -1.5101897e+01
  -7.5462533e+01   5.9392146e+01  -5.1873653e+01
  -5.4399540e+01   6.0537742e+01  -5.0666456e+01
  -3.4928726e+01   5.9981382e+01  -4.8619531e+01
  -1.4879549e+01   6.0260181e+01  -4.6512460e+01
   4.5673836e+00   6.1549201e+01  -4.4291644e+01
   2.3423913e+01   6.2588650e+01  -4.1269515e+01
   4.3537101e+01   6.4864589e+01  -3.6879953e+01
   6.3154625e+01   6.5665373e+01  -3.3117135e+01
   8.2793836e+01   6.6484694e+01  -2.7965307e+01
