  -8.0807165e+01  -7.8526762e+01  -3.3794144e+00
  -6.1601283e+01  -7.8168876e+01   1.6949184e-01
  -4.2128943e+01  -7.8504912e+01   2.1703786e+00
  -2.2657440e+01  -7.9729821e+01   4.4359595e+00
  -3.1915954e+00  -7.9401999e+01   6.1595713e+00
   1.7730780e+01  -8.0040975e+01   6.4824071e+00
   3.7968217e+01  -8.0382597e+01   7.1133064e+00
   5.8351006e+01  -8.0562055e+01   7.4253816e+00
   7.7472378e+01  -8.2650208e+01   5.9488882e+00
  -8.0278515e+01  -5.8556365e+01  -4.4039126e+00
  -6.0030045e+01  -5.9041457e+01  -2.3219562e+00
  -4.1115704e+01  -5.9616093e+01   1.5331509e-01
  -2.0762773e+01  -5.9827285e+01   2.2607933e+00
  -1.8783997e+00  -5.9537436e+01   3.4756501e+00
   1.9479822e+01  -6.1221142e+01   3.7966953e+00
   3.9035590e+01  -6.0102004e+01   4.6998323e+00
   5.9602494e+01  -6.1235463e+01   6.1489298e+00
   7.8249152e+01  -6.1645795e+01   6.7598426e+00
  -7.9964230e+01  -3.8668027e+01  -5.3634945e+00
  -6.1208319e+01  -3.8534662e+01  -3.4965993e+00
  -4.0915022e+01  -3.8448460e+01  -1.8046324e+00
  -2.1834934e+01  -3.9757870e+01  -1.4525891e-01
  -1.4809143e+00  -4.0157702e+01   1.0456398e+00
   1.9746451e+01  -4.0119022e+01   1.5288192e+00
   3.8844749e+01  -4.0657929e+01   2.6528877e+00
   5.8295836e+01  -4.1191735e+01   4.6354924e+00
   7.9207974e+01  -4.1552281e+01   5.2350879e+00
  -7.9923821e+01  -1.8162538e+01  -6.9905217e+00
  -5.9875947e+01  -1.8252758e+01  -4.4000717e+00
  -4.0350730e+01  -1.8994473e+01  -3.0251464e+00
  -2.0570747e+01  -1.9137848e+01  -1.6858739e+00
  -8.3568117e-01  -2.0042313e+01  -6.3921731e-01
   1.8917015e+01  -2.0232980e+01  -8.4860452e-03
   3.9416237e+01  -2.1538220e+01   1.6283809e+00
   5.9269325e+01  -2.1092492e+01   3.4869103e+00
   7.9093000e+01  -2.2027423e+01   4.0036799e+00
  -7.9215802e+01   1.5741467e+00  -7.7130424e+00
  -5.9363391e+01   6.5951031e-01  -5.4416100e+00
  -4.0377502e+01   9.5464049e-01  -3.7453372e+00
  -2.0127102e+01   6.9661469e-01  -2.4605735e+00
  -9.2309113e-01   3.7065680e-01  -1.6919692e+00
   2.0035535e+01  -4.3948707e-01  -8.1552346e-01
   3.9566953e+01  -1.0604074e+00   6.7908794e-01
   5.9865984e+01  -1.6644703e+00   2.4065430e+00
   8.0349418e+01  -2.1869578e+00   3.3161339e+00
  -7.8598887e+01   2.0543685e+01  -8.3311905e+00
  -5.9085443e+01   2.0977847e+01  -5.9954619e+00
  -3.8910994e+01   2.0537149e+01  -4.2642901e+00
  -2.0628282e+01   2.0476945e+01  -3.1221225e+00
  -5.5223121e-01   1.9426766e+01  -2.0662742e+00
   2.0414976e+01   1.9146535e+01  -1.4983580e+00
   4.0404658e+01   1.9003665e+01   1.1402562e-01
   5.9634487e+01   1.8805332e+01   1.8125026e+00
   8.0678257e+01   1.8614803e+01   2.4803062e+00
  -7.8315630e+01   4.1178881e+01  -9.4700216e+00
  -5.9504397e+01   4.0800581e+01  -7.2290030e+00
  -3.8249861e+01   4.1217457e+01  -5.0452744e+00
  -1.9215948e+01   3.9816932e+01  -3.4357943e+00
   5.9952275e-01   3.9166917e+01  -2.4188415e+00
   2.0384671e+01   3.8850213e+01  -1.4867974e+00
   4.0023392e+01   3.9274830e+01  -1.6205500e-01
   6.0367654e+01   3.9018391e+01   1.4782826e+00
   8.1129027e+01   3.7825261e+01   1.5400292e+00
  -7.8099954e+01   6.1587763e+01  -1.0981718e+01
  -5.8550616e+01   6.0995882e+01  -8.5971790e+00
  -3.8834359e+01   6.0222661e+01  -5.9690983e+00
  -1.8478342e+01   6.0232806e+01  -4.2686901e+00
   1.4609931e+00   6.0250621e+01  -2.6445350e+00
   2.0626476e+01   6.0030304e+01  -1.5212692e+00
   4.0128392e+01   5.9848103e+01  -1.1016698e-01
   6.0351788e+01   5.9161868e+01   7.5065296e-01
   8.1307864e+01   5.8305145e+01   1.1090025e+00
  -7.8445964e+01   8.0350863e+01  -1.1705133e+01
  -5.7540918e+01   8.1574642e+01  -8.8943113e+00
  -3.8001548e+01   8.0724727e+01  -6.6200025e+00
  -1.7922815e+01   8.0063851e+01  -4.9186065e+00
   2.1030750e+00   8.0047491e+01  -3.4385030e+00
   2.1195541e+01   7.9769096e+01  -2.3510004e+00
   4.1858331e+01   7.9070497e+01  -1.1061842e+00
   6.1825879e+01   7.8450111e+01  -3.5824971e-01
   8.2112098e+01   7.7277300e+01  -2.8729824e-01
