  -7.7868962e+01  -7.4083068e+01  -1.0643143e+01
  -5.8368073e+01  -7.3134054e+01  -1.0008001e+01
  -3.8835420e+01  -7.2770825e+01  -8.7304941e+00
  -1.9383648e+01  -7.3655430e+01  -7.0318265e+00
   1.1524566e-01  -7.3158100e+01  -5.7895632e+00
   2.1032409e+01  -7.2919625e+01  -4.9687784e+00
   4.1227513e+01  -7.2512066e+01  -3.5334021e+00
   6.1449570e+01  -7.1490821e+01  -1.1641914e+00
   8.1445645e+01  -7.1384744e+01  -3.2087417e-01
  -7.8705766e+01  -5.7217051e+01  -5.8026797e-01
  -5.8386332e+01  -5.7016523e+01   7.0456522e-01
  -3.9302560e+01  -5.6875226e+01   1.7313185e+00
  -1.8878548e+01  -5.6681036e+01   2.9762611e+00
  -1.7413162e-02  -5.5910514e+01   4.3339581e+00
   2.1385361e+01  -5.6656753e+01   5.0238550e+00
   4.0803998e+01  -5.5176056e+01   7.3086433e+00
   6.1350277e+01  -5.5186863e+01   9.3659460e+00
   7.9793241e+01  -5.4512098e+01   1.2130222e+01
  -7.9594190e+01  -3.8721934e+01   6.8065432e+00
  -6.0836944e+01  -3.7987638e+01   8.1337486e+00
  -4.0531970e+01  -3.7231093e+01   8.6792458e+00
  -2.1355508e+01  -3.7902303e+01   9.2864931e+00
  -9.8929261e-01  -3.7617286e+01   1.0286618e+01
   2.0190263e+01  -3.6835510e+01   1.1571630e+01
   3.9216008e+01  -3.6748919e+01   1.3650361e+01
   5.8574393e+01  -3.6530981e+01   1.6437115e+01
   7.9312266e+01  -3.5970330e+01   2.0065267e+01
  -8.0521005e+01  -1.8274500e+01   8.8479580e+00
  -6.0323960e+01  -1.7691759e+01   9.4608701e+00
  -4.0771961e+01  -1.7830336e+01   1.0633398e+01
  -2.0955679e+01  -1.7226866e+01   1.0520747e+01
  -1.1872894e+00  -1.7445683e+01   1.1261893e+01
   1.8524941e+01  -1.7001150e+01   1.2615977e+01
   3.9005042e+01  -1.7628981e+01   1.4800559e+01
   5.8698588e+01  -1.6416332e+01   1.7714595e+01
   7.8300957e+01  -1.6448485e+01   2.0855515e+01
  -8.0383639e+01   1.4223611e+00   7.2433245e+00
  -6.0407020e+01   1.2169754e+00   8.2466680e+00
  -4.1393659e+01   2.0795756e+00   9.3313045e+00
  -2.1108292e+01   2.6007837e+00   9.4990108e+00
  -1.8969407e+00   2.9458834e+00   1.0043016e+01
   1.9044299e+01   2.8023068e+00   1.1503286e+01
   3.8532356e+01   2.8295186e+00   1.3579480e+01
   5.8752758e+01   2.9862610e+00   1.6131032e+01
   7.9194268e+01   3.2247724e+00   1.8051894e+01
  -7.9859411e+01   1.9336186e+01   9.6430162e-01
  -6.0230079e+01   2.0327136e+01   1.3192402e+00
  -4.0060391e+01   2.0670296e+01   3.1262977e+00
  -2.1815366e+01   2.1714587e+01   4.3889374e+00
  -1.7156223e+00   2.1455143e+01   5.4836969e+00
   1.9203707e+01   2.1873601e+01   6.9774890e+00
   3.9151317e+01   2.2377732e+01   8.9890249e+00
   5.8284568e+01   2.2930865e+01   1.1503630e+01
   7.9272885e+01   2.3471333e+01   1.3194876e+01
  -7.9293100e+01   3.7147463e+01  -9.5059508e+00
  -6.0346365e+01   3.7124768e+01  -9.2856636e+00
  -3.9284952e+01   3.8587346e+01  -7.2226305e+00
  -2.0249026e+01   3.8551849e+01  -5.1074505e+00
  -4.3913347e-01   3.8846250e+01  -3.8460589e+00
   1.9304412e+01   3.9051610e+01  -2.2425126e+00
   3.8893003e+01   3.9931849e+01  -4.7421673e-01
   5.9145995e+01   4.0734485e+01   1.9377507e+00
   7.9855628e+01   4.0226797e+01   3.7585730e+00
  -7.8627820e+01   5.1352915e+01  -2.4223855e+01
  -5.8912060e+01   5.1831859e+01  -2.3152028e+01
  -3.9291273e+01   5.2182407e+01  -2.0548062e+01
  -1.9014307e+01   5.3795941e+01  -1.8677225e+01
   9.3713468e-01   5.4541690e+01  -1.7412660e+01
   2.0014602e+01   5.5161964e+01  -1.5341064e+01
   3.9500281e+01   5.5412608e+01  -1.3730272e+01
   5.9570719e+01   5.6117308e+01  -1.1107572e+01
   8.0257929e+01   5.6180373e+01  -9.2564020e+00
  -7.7875557e+01   6.2946077e+01  -3.8979519e+01
  -5.6874402e+01   6.5241927e+01  -3.8663673e+01
  -3.7844871e+01   6.5465740e+01  -3.6133727e+01
  -1.7760286e+01   6.5830698e+01  -3.4412324e+01
   2.2239431e+00   6.6847044e+01  -3.2731587e+01
   2.1156686e+01   6.7991549e+01  -3.0277249e+01
   4.1762266e+01   6.8039949e+01  -2.8180533e+01
   6.1125197e+01   6.9334127e+01  -2.5190831e+01
   8.1303947e+01   7.0113189e+01  -2.2927586e+01
