  -8.0749173e+01  -6.9637635e+01  -1.3291283e+01
  -6.1285089e+01  -6.9761403e+01  -1.1641185e+01
  -4.1708855e+01  -6.9802875e+01  -1.1400683e+01
  -2.2113363e+01  -7.0774981e+01  -1.1555088e+01
  -2.5798312e+00  -7.0555630e+01  -1.0930245e+01
   1.8352131e+01  -7.0876237e+01  -1.0838317e+01
   3.8518059e+01  -7.1709004e+01  -9.1919702e+00
   5.8820685e+01  -7.0600259e+01  -7.7216758e+00
   7.8311026e+01  -7.1734577e+01  -6.4239945e+00
  -8.1068921e+01  -5.4242355e+01  -5.2299751e-01
  -6.0708858e+01  -5.4393957e+01  -3.9969334e-01
  -4.1661725e+01  -5.5544242e+01   6.7180064e-01
  -2.1200480e+01  -5.5646757e+01   9.0590776e-01
  -2.2971089e+00  -5.5637022e+01   1.8234767e+00
   1.9089201e+01  -5.6939427e+01   2.0261455e+00
   3.8586959e+01  -5.6188680e+01   3.9677869e+00
   5.9164063e+01  -5.6539733e+01   5.6535400e+00
   7.7413461e+01  -5.6807862e+01   8.3690436e+00
  -8.1222314e+01  -3.6120271e+01   7.7838192e+00
  -6.2376093e+01  -3.6126943e+01   8.1112360e+00
  -4.2036228e+01  -3.6235005e+01   9.1974964e+00
  -2.2890277e+01  -3.7640000e+01   9.3178883e+00
  -2.5188782e+00  -3.7998797e+01   1.0179053e+01
   1.8685017e+01  -3.8032515e+01   1.1287979e+01
   3.7802055e+01  -3.8432522e+01   1.2116482e+01
   5.7104072e+01  -3.8942099e+01   1.5236265e+01
   7.7996318e+01  -3.9031423e+01   1.7890176e+01
  -8.1271815e+01  -1.5721327e+01   1.0430432e+01
  -6.1060172e+01  -1.5985286e+01   1.0666447e+01
  -4.1498931e+01  -1.6845841e+01   1.1206804e+01
  -2.1674149e+01  -1.7043235e+01   1.1175639e+01
  -1.9200324e+00  -1.7881089e+01   1.1853316e+01
   1.7805797e+01  -1.8166570e+01   1.3042160e+01
   3.8237305e+01  -1.9553250e+01   1.5329444e+01
   5.7964500e+01  -1.9027290e+01   1.8220648e+01
   7.7575384e+01  -1.9757572e+01   2.1220514e+01
  -8.0378469e+01   3.8061497e+00   7.5253282e+00
  -6.0422516e+01   2.8252291e+00   8.4802773e+00
  -4.1376145e+01   3.0218415e+00   9.2711773e+00
  -2.1097230e+01   2.7666169e+00   9.9757072e+00
  -1.8936578e+00   2.5313564e+00   1.0787191e+01
   1.9023796e+01   1.6240405e+00   1.2312123e+01
   3.8516791e+01   9.1481229e-01   1.4213652e+01
   5.8715032e+01   3.7961694e-01   1.6886530e+01
   7.9118733e+01  -3.3898729e-02   1.9149247e+01
  -7.9064130e+01   2.1003475e+01  -4.2014760e-01
  -5.9571256e+01   2.2038993e+01   1.8980721e+00
  -3.9377599e+01   2.1663275e+01   3.4062526e+00
  -2.1084848e+01   2.1754728e+01   4.3719807e+00
  -1.0485023e+00   2.1009351e+01   6.1760744e+00
   1.9868929e+01   2.0659823e+01   7.7135113e+00
   3.9828103e+01   2.0437478e+01   9.6601872e+00
   5.9006816e+01   2.0231091e+01   1.1861284e+01
   7.9946660e+01   2.0158014e+01   1.4137141e+01
  -7.7620705e+01   3.8036319e+01  -1.2038548e+01
  -5.8988042e+01   3.8364436e+01  -9.4058092e+00
  -3.7666716e+01   3.8835237e+01  -8.0357285e+00
  -1.8628481e+01   3.7827730e+01  -6.1993520e+00
   1.0736939e+00   3.7972321e+01  -3.7676824e+00
   2.0765525e+01   3.7977491e+01  -1.6106309e+00
   4.0290866e+01   3.8583054e+01   8.4067867e-01
   6.0609422e+01   3.8224575e+01   2.7572632e+00
   8.1246034e+01   3.7064293e+01   5.0476781e+00
  -7.6528087e+01   5.3619753e+01  -2.5260385e+01
  -5.6484486e+01   5.2849559e+01  -2.3353756e+01
  -3.6742491e+01   5.2921509e+01  -2.0807400e+01
  -1.6506323e+01   5.2839507e+01  -1.9917540e+01
   3.3825624e+00   5.3503245e+01  -1.7866447e+01
   2.2393720e+01   5.3806760e+01  -1.5200035e+01
   4.1695807e+01   5.4478003e+01  -1.2145852e+01
   6.1607789e+01   5.4929367e+01  -8.4706839e+00
   8.2391811e+01   5.3901362e+01  -6.7535228e+00
  -7.4667193e+01   6.6935124e+01  -3.8372781e+01
  -5.4288618e+01   6.7365581e+01  -3.7812537e+01
  -3.4699632e+01   6.6603112e+01  -3.5976200e+01
  -1.4615577e+01   6.6478112e+01  -3.4214912e+01
   5.3107894e+00   6.7372364e+01  -3.1898132e+01
   2.4277236e+01   6.7366875e+01  -2.9437180e+01
   4.4458704e+01   6.8555297e+01  -2.4933347e+01
   6.3769539e+01   7.0301724e+01  -2.0066217e+01
   8.3974901e+01   6.8973300e+01  -1.8366275e+01
