  -7.7097306e+01  -7.1961506e+01  -1.9734240e+01
  -5.7758196e+01  -7.1458940e+01  -1.7025922e+01
  -3.8184949e+01  -7.1188785e+01  -1.6704204e+01
  -1.8637528e+01  -7.2326714e+01  -1.5162725e+01
   8.4703229e-01  -7.1546531e+01  -1.3843397e+01
   2.1746463e+01  -7.1766466e+01  -1.2650195e+01
   4.1966531e+01  -7.1484607e+01  -1.1583424e+01
   6.2160444e+01  -7.0936724e+01  -8.8460169e+00
   8.1000124e+01  -7.0500517e+01  -8.0764205e+00
  -7.8231884e+01  -5.6843493e+01  -6.6841694e+00
  -5.7918941e+01  -5.7046939e+01  -5.3009437e+00
  -3.8840113e+01  -5.7003449e+01  -4.1780183e+00
  -1.8426350e+01  -5.6885796e+01  -2.7665233e+00
   4.5618249e-01  -5.5960646e+01  -1.8870251e+00
   2.1825868e+01  -5.7229490e+01  -9.7152534e-01
   4.1277736e+01  -5.5358207e+01   6.4690836e-01
   6.1792564e+01  -5.5557662e+01   2.9887545e+00
   8.0257434e+01  -5.4383906e+01   5.4198630e+00
  -7.9180602e+01  -3.9392797e+01   2.3130163e+00
  -6.0427695e+01  -3.8951530e+01   4.1626216e+00
  -4.0091028e+01  -3.8185186e+01   5.0196115e+00
  -2.0906326e+01  -3.8790152e+01   5.3899890e+00
  -5.2509689e-01  -3.8649945e+01   6.0608599e+00
   2.0650132e+01  -3.8002069e+01   7.4842154e+00
   3.9729177e+01  -3.7736725e+01   8.9766016e+00
   5.9129980e+01  -3.7470878e+01   1.1446165e+01
   7.9831511e+01  -3.6774102e+01   1.5253828e+01
  -8.0193218e+01  -1.9543438e+01   7.6140978e+00
  -6.0031939e+01  -1.9203956e+01   9.0435854e+00
  -4.0447436e+01  -1.9184689e+01   9.3922305e+00
  -2.0628488e+01  -1.8703110e+01   9.5904625e+00
  -8.5082634e-01  -1.8914580e+01   1.0021464e+01
   1.8879821e+01  -1.8442569e+01   1.1061630e+01
   3.9381620e+01  -1.9021753e+01   1.3047046e+01
   5.9108034e+01  -1.7772037e+01   1.5712506e+01
   7.8625048e+01  -1.7680804e+01   1.9345293e+01
  -8.0171213e+01   1.5663026e-01   9.1847333e+00
  -6.0187266e+01  -2.7784967e-01   9.9378909e+00
  -4.1154305e+01   7.6341822e-01   9.6369161e+00
  -2.0866575e+01   1.1479881e+00   9.8735313e+00
  -1.6490418e+00   1.5100018e+00   1.0089000e+01
   1.9306391e+01   1.3924962e+00   1.1331786e+01
   3.8814137e+01   1.4700801e+00   1.3212619e+01
   5.9032559e+01   1.6949002e+00   1.5774747e+01
   7.9322995e+01   2.1936284e+00   1.8881418e+01
  -8.0038699e+01   1.8800276e+01   5.5787689e+00
  -6.0417280e+01   1.9725630e+01   6.3286406e+00
  -4.0168736e+01   2.0131403e+01   6.5057176e+00
  -2.1858369e+01   2.0656264e+01   6.6495906e+00
  -1.7438329e+00   2.0385784e+01   7.4227631e+00
   1.9194093e+01   2.0806315e+01   8.6274343e+00
   3.9201216e+01   2.1285559e+01   9.9285668e+00
   5.8333634e+01   2.1888876e+01   1.2437962e+01
   7.9236025e+01   2.2510694e+01   1.4328476e+01
  -7.9781964e+01   3.7202589e+01  -3.8274770e+00
  -6.0913989e+01   3.7315164e+01  -2.8908783e+00
  -3.9663985e+01   3.9177722e+01  -1.6001635e+00
  -2.0533479e+01   3.8362228e+01  -1.1524409e+00
  -7.1348916e-01   3.8662292e+01  -6.2691489e-02
   1.9024354e+01   3.9189472e+01   1.5375338e+00
   3.8672383e+01   3.9903638e+01   2.5668632e+00
   5.8967546e+01   4.0547747e+01   4.6494013e+00
   7.9420244e+01   4.0208286e+01   6.7859098e+00
  -7.9155304e+01   5.3359178e+01  -1.6374433e+01
  -5.9889477e+01   5.3324118e+01  -1.5272137e+01
  -4.0085283e+01   5.3577062e+01  -1.4045016e+01
  -1.9757211e+01   5.4627131e+01  -1.3517554e+01
   1.7421952e-01   5.5726398e+01  -1.2196581e+01
   1.9305224e+01   5.6050640e+01  -1.0607394e+01
   3.8751486e+01   5.6700329e+01  -8.6657527e+00
   5.8951024e+01   5.6737797e+01  -7.1909955e+00
   7.9841924e+01   5.6875298e+01  -5.3013095e+00
  -7.7838342e+01   6.4620821e+01  -3.1345672e+01
  -5.8710860e+01   6.7557849e+01  -3.0124910e+01
  -3.9237966e+01   6.8019061e+01  -2.8515774e+01
  -1.9111588e+01   6.8676930e+01  -2.7524237e+01
   9.1397691e-01   6.9282561e+01  -2.6168798e+01
   1.9980910e+01   6.9344703e+01  -2.4675280e+01
   4.0653885e+01   6.8998011e+01  -2.3452000e+01
   6.0410952e+01   7.0258344e+01  -2.0674017e+01
   8.0454303e+01   6.8869173e+01  -1.7633382e+01
