  -7.9442540e+01  -7.4360746e+01   9.6953231e+00
  -6.0145570e+01  -7.3612379e+01   1.1515314e+01
  -4.0618670e+01  -7.3104931e+01   1.2831051e+01
  -2.0979102e+01  -7.3346321e+01   1.2873175e+01
  -1.5447144e+00  -7.2721297e+01   1.4850888e+01
   1.9384874e+01  -7.2388198e+01   1.5166631e+01
   3.9611555e+01  -7.1414297e+01   1.5205397e+01
   5.9877260e+01  -7.0144690e+01   1.7015637e+01
   7.9227933e+01  -7.0667791e+01   1.9449192e+01
  -8.0100772e+01  -5.4909745e+01   1.4318230e+01
  -5.9925088e+01  -5.4679866e+01   1.5521006e+01
  -4.0868590e+01  -5.4605766e+01   1.6973227e+01
  -2.0415654e+01  -5.4102025e+01   1.7362438e+01
  -1.5600642e+00  -5.3215755e+01   1.8726525e+01
   1.9826776e+01  -5.3991748e+01   1.9781255e+01
   3.9270846e+01  -5.2086879e+01   2.1453327e+01
   5.9786095e+01  -5.1958859e+01   2.3796484e+01
   7.8159970e+01  -5.1035743e+01   2.6925054e+01
  -8.0729911e+01  -3.4985039e+01   1.4534867e+01
  -6.1947473e+01  -3.4209123e+01   1.5915186e+01
  -4.1600847e+01  -3.3367941e+01   1.6372324e+01
  -2.2432777e+01  -3.4083861e+01   1.7165088e+01
  -2.0486589e+00  -3.3717063e+01   1.7631395e+01
   1.9092469e+01  -3.2859314e+01   1.9407065e+01
   3.8102426e+01  -3.2569983e+01   2.1608290e+01
   5.7417128e+01  -3.1972918e+01   2.4632592e+01
   7.8114326e+01  -3.0914241e+01   2.8379905e+01
  -8.1258205e+01  -1.4900289e+01   1.0124917e+01
  -6.1097106e+01  -1.4367221e+01   1.1496714e+01
  -4.1547475e+01  -1.4215281e+01   1.2706472e+01
  -2.1740713e+01  -1.3720790e+01   1.3420315e+01
  -1.9845635e+00  -1.3771783e+01   1.4458752e+01
   1.7670128e+01  -1.3169429e+01   1.6442052e+01
   3.8109370e+01  -1.3589562e+01   1.9023127e+01
   5.7743994e+01  -1.1975563e+01   2.2133503e+01
   7.7298680e+01  -1.1575328e+01   2.5535468e+01
  -8.0500475e+01   2.9432073e+00   1.6635016e+00
  -6.0645450e+01   3.0662204e+00   4.0877630e+00
  -4.1667293e+01   4.3457943e+00   5.3608153e+00
  -2.1453301e+01   5.0636113e+00   6.9964095e+00
  -2.3127736e+00   5.8085657e+00   8.6014936e+00
   1.8536419e+01   5.9054052e+00   1.1049003e+01
   3.7988606e+01   6.1319489e+00   1.3427404e+01
   5.8131669e+01   6.6519513e+00   1.6491107e+01
   7.8447628e+01   7.3102545e+00   1.9394616e+01
  -7.9174789e+01   1.7618561e+01  -1.0314921e+01
  -5.9776956e+01   1.9263044e+01  -8.1648874e+00
  -3.9715692e+01   2.0486273e+01  -5.6650992e+00
  -2.1559658e+01   2.1783092e+01  -3.6053800e+00
  -1.6247823e+00   2.2345329e+01  -8.5763331e-01
   1.9197998e+01   2.3054475e+01   1.5783043e+00
   3.9120687e+01   2.3646526e+01   3.8017047e+00
   5.8225709e+01   2.4497805e+01   6.4444189e+00
   7.9092009e+01   2.5432145e+01   9.1622238e+00
  -7.7974148e+01   3.2245729e+01  -2.4868028e+01
  -5.9158326e+01   3.2789420e+01  -2.2700787e+01
  -3.8010311e+01   3.4749385e+01  -2.0577432e+01
  -1.9068720e+01   3.4826863e+01  -1.7739857e+01
   6.2073198e-01   3.5631269e+01  -1.5334023e+01
   2.0063771e+01   3.7325070e+01  -1.1939854e+01
   3.9576005e+01   3.8663100e+01  -9.6822056e+00
   5.9681215e+01   3.9952115e+01  -6.4012780e+00
   8.0170714e+01   4.0401778e+01  -2.8741995e+00
  -7.6501841e+01   4.5267609e+01  -4.0587988e+01
  -5.6937403e+01   4.5013189e+01  -3.8709496e+01
  -3.7270229e+01   4.6105324e+01  -3.5838092e+01
  -1.6984594e+01   4.7334870e+01  -3.3778930e+01
   2.8716041e+00   4.8693820e+01  -3.1754099e+01
   2.1782259e+01   5.0061446e+01  -2.8730404e+01
   4.0982551e+01   5.1648262e+01  -2.5386757e+01
   6.0868393e+01   5.2959041e+01  -2.1776665e+01
   8.1487863e+01   5.4181028e+01  -1.8121015e+01
  -7.4545989e+01   5.5348338e+01  -5.6312189e+01
  -5.4216073e+01   5.8108736e+01  -5.4384127e+01
  -3.4606348e+01   5.7451549e+01  -5.2738356e+01
  -1.5297200e+01   5.8358576e+01  -5.0199403e+01
   4.5147513e+00   6.0203529e+01  -4.7557254e+01
   2.3453227e+01   6.0582765e+01  -4.4916660e+01
   4.3425980e+01   6.3345789e+01  -4.0179221e+01
   6.2785506e+01   6.5664677e+01  -3.5765741e+01
   8.2926196e+01   6.6532538e+01  -3.3214163e+01
