  -7.9582777e+01  -5.6928467e+01  -4.8201742e+01
  -6.0067786e+01  -5.7570402e+01  -4.7617136e+01
  -4.0526011e+01  -5.8206093e+01  -4.6615424e+01
  -2.0960875e+01  -5.9767390e+01  -4.5880241e+01
  -1.5222167e+00  -6.0668895e+01  -4.4057259e+01
   1.9381973e+01  -6.1539108e+01  -4.3339003e+01
   3.9574641e+01  -6.2376316e+01  -4.2064706e+01
   5.9839996e+01  -6.3642830e+01  -4.0248379e+01
   7.9048552e+01  -6.5522502e+01  -3.9608503e+01
  -7.9988620e+01  -4.5590761e+01  -3.3213868e+01
  -5.9717173e+01  -4.6938762e+01  -3.1864165e+01
  -4.0814571e+01  -4.9011255e+01  -2.9950805e+01
  -2.0377273e+01  -4.9398814e+01  -2.9005027e+01
  -1.6674631e+00  -4.9838406e+01  -2.7880651e+01
   1.9648367e+01  -5.1957144e+01  -2.7372820e+01
   3.9116014e+01  -5.2100065e+01  -2.5030497e+01
   5.9642790e+01  -5.3774043e+01  -2.3536681e+01
   7.8006207e+01  -5.4833649e+01  -2.1522366e+01
  -8.0391457e+01  -3.2771729e+01  -1.7951275e+01
  -6.1726564e+01  -3.3357626e+01  -1.6567449e+01
  -4.1459772e+01  -3.4202814e+01  -1.4711505e+01
  -2.2348707e+01  -3.5979408e+01  -1.4303026e+01
  -2.0480650e+00  -3.7320755e+01  -1.2906980e+01
   1.9081756e+01  -3.8403123e+01  -1.1119483e+01
   3.8150435e+01  -3.9615644e+01  -1.0013662e+01
   5.7565569e+01  -4.1006519e+01  -8.0956850e+00
   7.8493571e+01  -4.2004738e+01  -5.9603926e+00
  -8.0955136e+01  -1.6460963e+01  -5.4306877e+00
  -6.0967614e+01  -1.8079319e+01  -3.1531136e+00
  -4.1451435e+01  -1.9485473e+01  -2.2496871e+00
  -2.1700730e+01  -2.0498242e+01  -8.5474014e-01
  -2.0647334e+00  -2.2526705e+01   4.4885241e-01
   1.7602569e+01  -2.3730336e+01   1.9823716e+00
   3.8085027e+01  -2.5672679e+01   3.1213644e+00
   5.7876739e+01  -2.6165518e+01   5.5386235e+00
   7.7599981e+01  -2.7620215e+01   7.2697493e+00
  -8.0251983e+01   6.7045410e-01   4.3968340e+00
  -6.0450133e+01  -1.2645900e+00   5.5657472e+00
  -4.1488551e+01  -2.0352572e+00   7.3803901e+00
  -2.1240203e+01  -3.0880184e+00   8.2122537e+00
  -2.0819337e+00  -4.2206723e+00   9.2933851e+00
   1.8781270e+01  -5.9946502e+00   1.0799448e+01
   3.8215281e+01  -7.5854941e+00   1.2770273e+01
   5.8440288e+01  -9.0593177e+00   1.4813942e+01
   7.8778300e+01  -1.0461337e+01   1.7263739e+01
  -7.9349201e+01   1.8605919e+01   1.0570175e+01
  -5.9750679e+01   1.8014464e+01   1.1972592e+01
  -3.9563073e+01   1.6705491e+01   1.2945594e+01
  -2.1258930e+01   1.6054690e+01   1.3262663e+01
  -1.2031903e+00   1.4338583e+01   1.3558922e+01
   1.9695735e+01   1.3147942e+01   1.4916172e+01
   3.9614293e+01   1.2012766e+01   1.6958232e+01
   5.8697395e+01   1.0842688e+01   1.9637151e+01
   7.9550789e+01   9.7073037e+00   2.2377367e+01
  -7.8422961e+01   3.8964799e+01   1.4012066e+01
  -5.9519880e+01   3.7726890e+01   1.4423081e+01
  -3.8232179e+01   3.7110644e+01   1.6198404e+01
  -1.9182302e+01   3.5176272e+01   1.5748812e+01
   6.2226500e-01   3.3860425e+01   1.6145389e+01
   2.0343495e+01   3.2660211e+01   1.7578448e+01
   3.9909158e+01   3.2101451e+01   1.9696755e+01
   6.0096731e+01   3.0828722e+01   2.2433096e+01
   8.0603312e+01   2.8713736e+01   2.5166044e+01
  -7.7090016e+01   5.9353695e+01   1.2841451e+01
  -5.7640047e+01   5.7898910e+01   1.3989887e+01
  -3.7925332e+01   5.6144576e+01   1.6108335e+01
  -1.7507200e+01   5.5549257e+01   1.6174454e+01
   2.4857903e+00   5.4879060e+01   1.6390015e+01
   2.1581188e+01   5.3799773e+01   1.8071361e+01
   4.1055403e+01   5.2623524e+01   1.9383056e+01
   6.1143877e+01   5.0945994e+01   2.1341818e+01
   8.1965569e+01   4.9117167e+01   2.2734522e+01
  -7.6286459e+01   7.7457932e+01   7.9131774e+00
  -5.5384192e+01   7.7653241e+01   8.5796500e+00
  -3.6027302e+01   7.5869932e+01   1.0745516e+01
  -1.5932286e+01   7.4905150e+01   1.2067094e+01
   4.1328035e+00   7.4127430e+01   1.1946336e+01
   2.3177159e+01   7.2886036e+01   1.3192875e+01
   4.3752874e+01   7.1049283e+01   1.4694473e+01
   6.3631305e+01   6.9418843e+01   1.6049804e+01
   8.3808861e+01   6.7998791e+01   1.7989100e+01
