  -8.0807316e+01  -7.8028730e+01  -5.0020940e+00
  -6.1370466e+01  -7.7947947e+01  -3.0550325e+00
  -4.1986469e+01  -7.8520792e+01  -3.6783605e-01
  -2.2533484e+01  -7.9803995e+01   2.0211842e+00
  -3.0139785e+00  -7.9558855e+01   2.9836004e+00
   1.7906747e+01  -8.0206698e+01   3.3858717e+00
   3.8155274e+01  -8.0458056e+01   3.3349418e+00
   5.8539388e+01  -8.0685304e+01   3.4895765e+00
   7.8417204e+01  -8.2753628e+01   2.3150354e+00
  -8.0225138e+01  -5.8461860e+01  -5.4305974e+00
  -5.9950000e+01  -5.8866906e+01  -3.6071119e+00
  -4.1142451e+01  -5.9504590e+01  -2.7034769e-01
  -2.0743539e+01  -5.9785546e+01   1.3212846e+00
  -1.8252072e+00  -5.9541777e+01   1.7868583e+00
   1.9529926e+01  -6.1229292e+01   2.2581836e+00
   3.9103603e+01  -6.0144816e+01   2.6955064e+00
   5.9714010e+01  -6.1316681e+01   3.1646299e+00
   7.8347667e+01  -6.1729434e+01   2.9668099e+00
  -7.9787805e+01  -3.8584363e+01  -6.5495218e+00
  -6.1130045e+01  -3.8448075e+01  -3.8743175e+00
  -4.0898396e+01  -3.8283662e+01  -1.5173967e+00
  -2.1788479e+01  -3.9634128e+01  -2.7512170e-01
  -1.4048868e+00  -4.0080100e+01   1.4263074e-01
   1.9815064e+01  -4.0050467e+01   8.8344186e-01
   3.8927250e+01  -4.0617185e+01   1.7265032e+00
   5.8461549e+01  -4.1223306e+01   2.5039236e+00
   7.9450721e+01  -4.1590613e+01   2.5144183e+00
  -7.9874846e+01  -1.8097628e+01  -6.6852583e+00
  -5.9848654e+01  -1.8142856e+01  -3.9310884e+00
  -4.0330367e+01  -1.8812767e+01  -2.4269671e+00
  -2.0525531e+01  -1.8994921e+01  -1.5341085e+00
  -7.7014365e-01  -1.9928942e+01  -1.0455886e+00
   1.8980648e+01  -2.0144421e+01  -3.6516574e-01
   3.9502259e+01  -2.1486974e+01   9.2406171e-01
   5.9414924e+01  -2.1096926e+01   1.9878062e+00
   7.9244455e+01  -2.2030553e+01   2.1809423e+00
  -7.9140587e+01   1.6488208e+00  -6.9994041e+00
  -5.9366048e+01   7.9802763e-01  -4.1083982e+00
  -4.0348816e+01   1.1454257e+00  -2.8228401e+00
  -2.0074835e+01   8.4899000e-01  -2.0020436e+00
  -8.5877248e-01   5.0175482e-01  -1.6653004e+00
   2.0101611e+01  -3.4092372e-01  -8.6484166e-01
   3.9653677e+01  -9.9634174e-01   3.1109546e-01
   6.0001325e+01  -1.6513600e+00   1.2825963e+00
   8.0518528e+01  -2.1827863e+00   1.8091419e+00
  -7.8480694e+01   2.0621568e+01  -7.4527116e+00
  -5.9073932e+01   2.1122117e+01  -4.3631004e+00
  -3.8885499e+01   2.0735019e+01  -2.7892802e+00
  -2.0576407e+01   2.0639260e+01  -2.2116234e+00
  -4.8521854e-01   1.9561094e+01  -1.5428890e+00
   2.0481183e+01   1.9256774e+01  -9.5786808e-01
   4.0490488e+01   1.9075589e+01   3.8468211e-01
   5.9773430e+01   1.8827099e+01   1.2884985e+00
   8.0833086e+01   1.8635202e+01   1.6290435e+00
  -7.8313737e+01   4.1287615e+01  -7.1786344e+00
  -5.9499489e+01   4.0974294e+01  -4.9529417e+00
  -3.8227926e+01   4.1429560e+01  -2.9501755e+00
  -1.9158544e+01   3.9978928e+01  -1.9032420e+00
   6.7295042e-01   3.9302524e+01  -1.2999859e+00
   2.0453588e+01   3.8949096e+01  -2.8877254e-01
   4.0104971e+01   3.9343358e+01   8.4361842e-01
   6.0499178e+01   3.9040181e+01   1.6372721e+00
   8.1216312e+01   3.7865355e+01   1.2008787e+00
  -7.8543596e+01   6.1751958e+01  -7.2881303e+00
  -5.8575753e+01   6.1213823e+01  -5.3270873e+00
  -3.8788671e+01   6.0454800e+01  -3.2946699e+00
  -1.8418626e+01   6.0411280e+01  -1.7720745e+00
   1.5688162e+00   6.0382677e+01  -9.2554851e-01
   2.0743576e+01   6.0126399e+01   1.7255718e-02
   4.0264818e+01   5.9914429e+01   1.1242100e+00
   6.0495711e+01   5.9213784e+01   1.7705264e+00
   8.1439498e+01   5.8454489e+01   8.7565332e-01
  -7.8256385e+01   8.0527630e+01  -7.5858653e+00
  -5.7731606e+01   8.1783869e+01  -5.3997534e+00
  -3.8132053e+01   8.0969513e+01  -3.7038204e+00
  -1.8039510e+01   8.0252520e+01  -2.1996094e+00
   2.0042262e+00   8.0200989e+01  -9.8583418e-01
   2.1102558e+01   7.9887525e+01  -1.7391499e-02
   4.1738244e+01   7.9177784e+01   1.6114738e+00
   6.1717391e+01   7.8546339e+01   1.3247008e+00
   8.2025846e+01   7.8001565e+01   8.9966548e-01
