  -7.7430766e+01  -6.5000301e+01  -3.9585648e+01
  -5.7948904e+01  -6.3781156e+01  -3.8837680e+01
  -3.8448169e+01  -6.4086636e+01  -3.7129899e+01
  -1.8824809e+01  -6.4689284e+01  -3.6552624e+01
   6.4256972e-01  -6.4599585e+01  -3.4817536e+01
   2.1541940e+01  -6.4917901e+01  -3.3645661e+01
   4.1757101e+01  -6.4726463e+01  -3.2471256e+01
   6.1955812e+01  -6.5165767e+01  -2.9749713e+01
   8.1355746e+01  -6.6355164e+01  -2.8778853e+01
  -7.8174183e+01  -5.1616088e+01  -2.4737886e+01
  -5.8090801e+01  -5.1594017e+01  -2.3804805e+01
  -3.9125395e+01  -5.2991839e+01  -2.1901118e+01
  -1.8692372e+01  -5.2804368e+01  -2.0812879e+01
   1.6895419e-01  -5.2408101e+01  -1.9305292e+01
   2.1534384e+01  -5.3839679e+01  -1.8543354e+01
   4.0992177e+01  -5.2910270e+01  -1.6301324e+01
   6.1489033e+01  -5.3932501e+01  -1.4364498e+01
   7.9844503e+01  -5.4658355e+01  -1.1361987e+01
  -7.9354925e+01  -3.7821516e+01  -1.0393818e+01
  -6.0857881e+01  -3.7184487e+01  -1.0099066e+01
  -4.0593445e+01  -3.7406113e+01  -8.0484079e+00
  -2.1460704e+01  -3.8692594e+01  -7.1323567e+00
  -1.1319087e+00  -3.9236202e+01  -5.6128792e+00
   2.0002612e+01  -3.9484064e+01  -3.5864053e+00
   3.9065299e+01  -3.9815794e+01  -1.9096494e+00
   5.8528496e+01  -4.0125558e+01   4.7413662e-04
   7.9432439e+01  -4.0065162e+01   2.5614617e+00
  -8.0496369e+01  -2.0009684e+01  -1.6837592e-01
  -6.0445797e+01  -2.0147237e+01   1.0144113e+00
  -4.0901592e+01  -2.0839852e+01   2.1185110e+00
  -2.1146936e+01  -2.1180703e+01   3.7614617e+00
  -1.4222564e+00  -2.2131378e+01   4.9529373e+00
   1.8270018e+01  -2.2469344e+01   6.5971140e+00
   3.8720279e+01  -2.3870703e+01   8.7004651e+00
   5.8499347e+01  -2.3381193e+01   1.1219738e+01
   7.8224292e+01  -2.3835805e+01   1.3419547e+01
  -8.0442953e+01  -1.5198586e+00   6.8089842e+00
  -6.0464400e+01  -2.3081037e+00   7.4008337e+00
  -4.1431480e+01  -2.0280405e+00   8.4486639e+00
  -2.1174041e+01  -2.2835044e+00   9.6177550e+00
  -1.9675980e+00  -2.5229000e+00   1.0356878e+01
   1.8970422e+01  -3.2965577e+00   1.1656602e+01
   3.8460402e+01  -3.9667943e+00   1.3602663e+01
   5.8610658e+01  -4.6674050e+00   1.6581918e+01
   7.8777145e+01  -5.2185480e+00   2.0404348e+01
  -7.9926657e+01   1.7424223e+01   8.0178161e+00
  -6.0380608e+01   1.7844056e+01   1.0065837e+01
  -4.0183100e+01   1.7340310e+01   1.1482333e+01
  -2.1864811e+01   1.7411124e+01   1.1513738e+01
  -1.7649046e+00   1.6458865e+01   1.2107439e+01
   1.9169269e+01   1.6224289e+01   1.3422811e+01
   3.9094090e+01   1.6003458e+01   1.5694440e+01
   5.8185424e+01   1.5713221e+01   1.8548773e+01
   7.8917166e+01   1.5518714e+01   2.2266161e+01
  -7.9377468e+01   3.7946753e+01   5.6276991e+00
  -6.0741266e+01   3.7626957e+01   8.2925030e+00
  -3.9463867e+01   3.7996722e+01   1.0250389e+01
  -2.0357425e+01   3.6728064e+01   1.0670061e+01
  -5.3732947e-01   3.6192599e+01   1.1663382e+01
   1.9171834e+01   3.5926818e+01   1.3638051e+01
   3.8751633e+01   3.6269848e+01   1.5669898e+01
   5.9023045e+01   3.5918445e+01   1.8034617e+01
   7.9680207e+01   3.4613541e+01   2.0044820e+01
  -7.9162678e+01   5.7598770e+01  -8.2491735e-02
  -5.9186657e+01   5.6975890e+01   2.4758204e+00
  -3.9425304e+01   5.6219990e+01   4.7454983e+00
  -1.9001093e+01   5.6341254e+01   5.0550081e+00
   9.5077176e-01   5.6598109e+01   6.4945959e+00
   2.0095125e+01   5.6300962e+01   7.9198813e+00
   3.9588864e+01   5.5763736e+01   9.3532937e+00
   5.9664063e+01   5.5145968e+01   1.1961438e+01
   8.0580045e+01   5.3947674e+01   1.3012778e+01
  -7.8267484e+01   7.3779361e+01  -9.5737476e+00
  -5.7232223e+01   7.4715254e+01  -7.8240945e+00
  -3.7705104e+01   7.3808725e+01  -5.7010001e+00
  -1.7688302e+01   7.3690337e+01  -4.4994290e+00
   2.3091939e+00   7.3776628e+01  -3.3039686e+00
   2.1382034e+01   7.3347823e+01  -1.9529383e+00
   4.1930890e+01   7.2636478e+01   5.4246167e-01
   6.1659513e+01   7.1664726e+01   2.0323023e+00
   8.1469270e+01   7.2366967e+01   6.5034425e+00
