  -8.1053620e+01  -7.3230768e+01   1.7593196e+01
  -6.1599059e+01  -7.2417869e+01   1.9157784e+01
  -4.2098329e+01  -7.2481599e+01   2.0891564e+01
  -2.2496293e+01  -7.3366075e+01   2.1757921e+01
  -2.9630789e+00  -7.2717964e+01   2.1933728e+01
   1.7921659e+01  -7.2590180e+01   2.3372376e+01
   3.8145364e+01  -7.1964639e+01   2.4196416e+01
   5.8464628e+01  -7.0865019e+01   2.5423628e+01
   7.8225329e+01  -7.1045866e+01   2.4409208e+01
  -8.1093614e+01  -5.3351650e+01   1.9781304e+01
  -6.0757849e+01  -5.3213292e+01   2.0785231e+01
  -4.1656492e+01  -5.3457593e+01   2.1370929e+01
  -2.1197473e+01  -5.3328150e+01   2.1744594e+01
  -2.2892756e+00  -5.2642755e+01   2.2180223e+01
   1.9059431e+01  -5.3537579e+01   2.3775085e+01
   3.8477379e+01  -5.1568379e+01   2.5662340e+01
   5.8963401e+01  -5.1669272e+01   2.8249794e+01
   7.7451704e+01  -5.0986009e+01   3.0690133e+01
  -8.1049711e+01  -3.3855412e+01   1.5618204e+01
  -6.2302710e+01  -3.2983091e+01   1.7372147e+01
  -4.1943712e+01  -3.2502836e+01   1.7799072e+01
  -2.2781569e+01  -3.3403987e+01   1.8544836e+01
  -2.3976677e+00  -3.3345133e+01   1.9142618e+01
   1.8767743e+01  -3.2547921e+01   2.0634546e+01
   3.7778403e+01  -3.2235301e+01   2.2826502e+01
   5.7103097e+01  -3.1761283e+01   2.5808457e+01
   7.7872635e+01  -3.0872857e+01   2.9181021e+01
  -8.1181491e+01  -1.4996826e+01   7.4047799e+00
  -6.1245842e+01  -1.3906062e+01   1.0379502e+01
  -4.1709917e+01  -1.3949312e+01   1.1800924e+01
  -2.1928176e+01  -1.3454848e+01   1.3025730e+01
  -2.1853761e+00  -1.3749440e+01   1.4259206e+01
   1.7479276e+01  -1.3140778e+01   1.6139146e+01
   3.7891834e+01  -1.3479537e+01   1.8934463e+01
   5.7579512e+01  -1.2019440e+01   2.1773712e+01
   7.7234359e+01  -1.1872235e+01   2.4563808e+01
  -7.9847067e+01   1.5759950e+00  -3.2779605e+00
  -6.0149451e+01   2.0212209e+00   1.7455274e-01
  -4.1283893e+01   3.6464343e+00   2.3831354e+00
  -2.1109980e+01   4.4253269e+00   4.4331295e+00
  -2.0204350e+00   5.1830031e+00   6.5559176e+00
   1.8794757e+01   5.4265489e+00   9.2682935e+00
   3.8173476e+01   5.8673716e+00   1.2160802e+01
   5.8375697e+01   6.1543171e+00   1.4841767e+01
   7.8678183e+01   6.7940141e+00   1.7842061e+01
  -7.8184842e+01   1.5296331e+01  -1.6300842e+01
  -5.8910365e+01   1.7218912e+01  -1.3268425e+01
  -3.8975968e+01   1.8709667e+01  -1.0013118e+01
  -2.0907899e+01   2.0272993e+01  -7.4311420e+00
  -9.8396279e-01   2.0626997e+01  -4.5716032e+00
   1.9715830e+01   2.1844971e+01  -1.3998620e+00
   3.9552915e+01   2.2774936e+01   1.3988583e+00
   5.8615115e+01   2.3715244e+01   4.3072622e+00
   7.9470818e+01   2.4621281e+01   7.1145134e+00
  -7.6761265e+01   3.0719438e+01  -2.9986218e+01
  -5.7923594e+01   3.0564873e+01  -2.7950031e+01
  -3.6878592e+01   3.2833722e+01  -2.5007597e+01
  -1.8220351e+01   3.3383462e+01  -2.1467554e+01
   1.4147819e+00   3.4277346e+01  -1.8679699e+01
   2.0736885e+01   3.6263817e+01  -1.4789792e+01
   4.0105243e+01   3.8109708e+01  -1.1777485e+01
   6.0204344e+01   3.9343417e+01  -8.4383868e+00
   8.0615257e+01   3.9861717e+01  -4.5708776e+00
  -7.6037185e+01   4.3983290e+01  -4.4412207e+01
  -5.6036901e+01   4.4261194e+01  -4.1986133e+01
  -3.6302330e+01   4.5128025e+01  -3.9530367e+01
  -1.6095763e+01   4.6598079e+01  -3.6924128e+01
   3.6823844e+00   4.8057233e+01  -3.4295241e+01
   2.2429772e+01   4.9998028e+01  -3.0635352e+01
   4.1501943e+01   5.1982270e+01  -2.6805964e+01
   6.1239609e+01   5.3592836e+01  -2.2559993e+01
   8.1671282e+01   5.5320407e+01  -1.8134864e+01
  -7.4543595e+01   5.6540906e+01  -5.8296458e+01
  -5.3658714e+01   5.7943001e+01  -5.7209312e+01
  -3.4179822e+01   5.8625427e+01  -5.4418455e+01
  -1.4231751e+01   5.9716619e+01  -5.1703530e+01
   5.5473419e+00   6.1508432e+01  -4.8736354e+01
   2.4288532e+01   6.3133844e+01  -4.5285522e+01
   4.4346340e+01   6.5244658e+01  -4.0571999e+01
   6.3535656e+01   6.7769207e+01  -3.5567591e+01
   8.3414653e+01   6.9337813e+01  -3.1659119e+01
