  -8.1488426e+01  -7.5314859e+01   1.0810816e+01
  -6.1959101e+01  -7.5351018e+01   1.1249934e+01
  -4.2398855e+01  -7.5750147e+01   1.1975197e+01
  -2.2813921e+01  -7.6975866e+01   1.1138147e+01
  -3.2727143e+00  -7.6883030e+01   1.0777545e+01
   1.7642791e+01  -7.7530315e+01   1.0160333e+01
   3.7886738e+01  -7.7472752e+01   9.6624333e+00
   5.8234158e+01  -7.7278023e+01   1.0900282e+01
   7.8103009e+01  -7.8709025e+01   9.9719723e+00
  -8.0848198e+01  -5.5494718e+01   1.3437233e+01
  -6.0659189e+01  -5.6141842e+01   1.3212598e+01
  -4.1557791e+01  -5.6767839e+01   1.3116434e+01
  -2.1108300e+01  -5.7185322e+01   1.2506623e+01
  -2.1833819e+00  -5.7035277e+01   1.2573229e+01
   1.9173069e+01  -5.8738003e+01   1.2911316e+01
   3.8707221e+01  -5.7528825e+01   1.4115881e+01
   5.9273429e+01  -5.8497685e+01   1.5688970e+01
   7.7931173e+01  -5.8569448e+01   1.6039454e+01
  -8.0527616e+01  -3.5563494e+01   1.3720429e+01
  -6.1718440e+01  -3.5607465e+01   1.2495566e+01
  -4.1355804e+01  -3.5539967e+01   1.1985436e+01
  -2.2221935e+01  -3.7003201e+01   1.1428711e+01
  -1.8402038e+00  -3.7561620e+01   1.1057994e+01
   1.9387624e+01  -3.7559295e+01   1.1522030e+01
   3.8482331e+01  -3.8026187e+01   1.2739300e+01
   5.7972565e+01  -3.8442783e+01   1.4326059e+01
   7.8900862e+01  -3.8428885e+01   1.6680497e+01
  -8.0498868e+01  -1.5362140e+01   9.8437775e+00
  -6.0285552e+01  -1.5511937e+01   9.6559092e+00
  -4.0709738e+01  -1.6191654e+01   9.6421331e+00
  -2.0900676e+01  -1.6486584e+01   8.8831993e+00
  -1.1470264e+00  -1.7529914e+01   8.5812561e+00
   1.8608404e+01  -1.7758944e+01   9.1044171e+00
   3.9130949e+01  -1.9017463e+01   1.0461755e+01
   5.8994790e+01  -1.8430148e+01   1.2159036e+01
   7.8684804e+01  -1.8973383e+01   1.4634422e+01
  -7.9602079e+01   3.3198757e+00   3.4611374e+00
  -5.9630085e+01   2.6693640e+00   4.3613759e+00
  -4.0585885e+01   3.2278159e+00   5.0209449e+00
  -2.0294738e+01   2.9738599e+00   4.9938719e+00
  -1.0800307e+00   2.5358502e+00   4.6869162e+00
   1.9879721e+01   1.7158318e+00   5.5264827e+00
   3.9423330e+01   1.1660285e+00   6.8832275e+00
   5.9746014e+01   6.4348153e-01   8.3375762e+00
   8.0218857e+01   2.7724405e-01   9.8641604e+00
  -7.8691745e+01   2.0598515e+01  -4.3635651e+00
  -5.9054099e+01   2.1278517e+01  -3.7986783e+00
  -3.8844740e+01   2.1306374e+01  -2.4642904e+00
  -2.0531982e+01   2.1478035e+01  -2.0410066e+00
  -4.3020995e-01   2.0581484e+01  -1.4242026e+00
   2.0518839e+01   2.0401333e+01  -3.6130785e-01
   4.0530323e+01   2.0330193e+01   9.5891982e-01
   5.9778189e+01   2.0258821e+01   2.4505827e+00
   8.0819075e+01   2.0060847e+01   3.4012817e+00
  -7.8039750e+01   3.8824475e+01  -1.4088676e+01
  -5.9099515e+01   3.8544769e+01  -1.3622751e+01
  -3.7762547e+01   3.9283130e+01  -1.2681305e+01
  -1.8675768e+01   3.8379354e+01  -1.1369889e+01
   1.1452579e+00   3.8198104e+01  -1.0272763e+01
   2.0893279e+01   3.8188786e+01  -8.7117796e+00
   4.0530929e+01   3.8720788e+01  -7.4101385e+00
   6.0865347e+01   3.8770271e+01  -5.6340494e+00
   8.1588928e+01   3.7677643e+01  -4.2918850e+00
  -7.7713412e+01   5.5467854e+01  -2.5994373e+01
  -5.7600006e+01   5.5378224e+01  -2.4803900e+01
  -3.7984340e+01   5.4940740e+01  -2.3506411e+01
  -1.7572435e+01   5.5291807e+01  -2.2806553e+01
   2.3539223e+00   5.6023207e+01  -2.1187721e+01
   2.1505993e+01   5.5827564e+01  -1.9851345e+01
   4.0933473e+01   5.6227794e+01  -1.7669148e+01
   6.1046767e+01   5.6240894e+01  -1.5291564e+01
   8.1987879e+01   5.5736726e+01  -1.4180179e+01
  -7.6810393e+01   7.1291837e+01  -3.6068255e+01
  -5.6114161e+01   7.2033008e+01  -3.6845641e+01
  -3.7254334e+01   7.1738858e+01  -3.5285301e+01
  -1.7121195e+01   7.1075922e+01  -3.4446111e+01
   2.7054361e+00   7.1289110e+01  -3.2616870e+01
   2.1727092e+01   7.1445094e+01  -3.0633267e+01
   4.1965037e+01   7.1965457e+01  -2.7098432e+01
   6.1919153e+01   7.1614236e+01  -2.5933464e+01
   8.1415343e+01   7.2380438e+01  -2.4431598e+01
