  -8.0967652e+01  -7.0622220e+01  -8.2246122e+00
  -6.1458391e+01  -6.9790848e+01  -7.6895745e+00
  -4.1970964e+01  -7.0700887e+01  -6.0462509e+00
  -2.2425409e+01  -7.1277814e+01  -6.8760468e+00
  -2.9123764e+00  -7.1593270e+01  -5.8086034e+00
   1.8018562e+01  -7.1899533e+01  -5.5630414e+00
   3.8256339e+01  -7.2016332e+01  -4.8649164e+00
   5.8551974e+01  -7.0837074e+01  -3.3535527e+00
   7.8483629e+01  -7.1130939e+01  -1.5021055e+00
  -8.1317302e+01  -5.4197411e+01   3.1880721e+00
  -6.1001915e+01  -5.4912996e+01   4.3471146e+00
  -4.1900559e+01  -5.5447866e+01   4.6886385e+00
  -2.1438425e+01  -5.5616703e+01   4.7095876e+00
  -2.5488967e+00  -5.5619844e+01   5.8779893e+00
   1.8842432e+01  -5.6853282e+01   5.8425163e+00
   3.8354421e+01  -5.5593023e+01   7.3224504e+00
   5.8864159e+01  -5.6373821e+01   9.5859051e+00
   7.7388496e+01  -5.5331580e+01   1.1586424e+01
  -8.1321266e+01  -3.5583344e+01   1.0279049e+01
  -6.2482861e+01  -3.5467324e+01   1.0902218e+01
  -4.2116112e+01  -3.5367417e+01   1.1197630e+01
  -2.2961433e+01  -3.6652350e+01   1.1141078e+01
  -2.5882259e+00  -3.7048922e+01   1.1940688e+01
   1.8603886e+01  -3.6987269e+01   1.3254697e+01
   3.7680802e+01  -3.7501901e+01   1.4708651e+01
   5.7076856e+01  -3.7814970e+01   1.7209779e+01
   7.7697609e+01  -3.7758272e+01   2.1489798e+01
  -8.1395387e+01  -1.5013781e+01   1.0171599e+01
  -6.1252804e+01  -1.5181916e+01   1.1869825e+01
  -4.1679567e+01  -1.5893207e+01   1.2108828e+01
  -2.1854860e+01  -1.5997627e+01   1.2287754e+01
  -2.1001837e+00  -1.6880869e+01   1.2886941e+01
   1.7619658e+01  -1.7075609e+01   1.4188134e+01
   3.8088687e+01  -1.8404968e+01   1.6150973e+01
   5.7791324e+01  -1.7769066e+01   1.9184060e+01
   7.7334707e+01  -1.8231649e+01   2.2642601e+01
  -8.0393711e+01   4.2138872e+00   5.7158771e+00
  -6.0571778e+01   3.4096927e+00   8.2768156e+00
  -4.1524404e+01   3.8175613e+00   8.9547730e+00
  -2.1286649e+01   3.7632176e+00   1.0446818e+01
  -2.0793074e+00   3.4853133e+00   1.1148130e+01
   1.8845473e+01   2.6659103e+00   1.2621442e+01
   3.8312724e+01   2.0495366e+00   1.4799040e+01
   5.8492584e+01   1.6229804e+00   1.7625864e+01
   7.8847328e+01   1.4664684e+00   2.0320638e+01
  -7.8961252e+01   2.0844284e+01  -3.3386254e+00
  -5.9510004e+01   2.1657640e+01  -6.1721960e-01
  -3.9349973e+01   2.1786686e+01   1.3208358e+00
  -2.1147693e+01   2.2237316e+01   3.3307337e+00
  -1.0935524e+00   2.1474456e+01   4.9165992e+00
   1.9821568e+01   2.1264803e+01   6.5099025e+00
   3.9704548e+01   2.1272799e+01   9.1318499e+00
   5.8852922e+01   2.1189787e+01   1.1590179e+01
   7.9780480e+01   2.1275409e+01   1.3975947e+01
  -7.7302423e+01   3.7054009e+01  -1.6054033e+01
  -5.8754043e+01   3.6753411e+01  -1.3508463e+01
  -3.7473268e+01   3.7697804e+01  -1.1795438e+01
  -1.8595807e+01   3.7329794e+01  -8.5786394e+00
   1.1285335e+00   3.7357404e+01  -6.3293664e+00
   2.0771491e+01   3.7776765e+01  -3.7996522e+00
   4.0267974e+01   3.8523400e+01  -1.1644532e+00
   6.0414352e+01   3.8978518e+01   2.0854448e+00
   8.1037671e+01   3.8015436e+01   4.5780776e+00
  -7.6487314e+01   5.1505981e+01  -3.0226603e+01
  -5.6487188e+01   5.0871486e+01  -2.7867193e+01
  -3.6695168e+01   5.0613211e+01  -2.5758950e+01
  -1.6439590e+01   5.1413556e+01  -2.3243020e+01
   3.4359677e+00   5.1713499e+01  -2.0987471e+01
   2.2398969e+01   5.2715498e+01  -1.8154349e+01
   4.1534588e+01   5.3873892e+01  -1.4302681e+01
   6.1544464e+01   5.4116023e+01  -1.1181162e+01
   8.2288854e+01   5.4218181e+01  -8.0699897e+00
  -7.3846917e+01   6.3262037e+01  -4.4632173e+01
  -5.3127170e+01   6.5189411e+01  -4.2299810e+01
  -3.4027000e+01   6.4354066e+01  -4.0776329e+01
  -1.4068477e+01   6.4554528e+01  -3.7929544e+01
   5.9040029e+00   6.4596819e+01  -3.5849756e+01
   2.4764670e+01   6.5691817e+01  -3.2873410e+01
   4.4645408e+01   6.7713807e+01  -2.7427650e+01
   6.4010056e+01   6.9444971e+01  -2.2773536e+01
   8.3252814e+01   7.0176382e+01  -1.9332279e+01
