  -8.0939707e+01  -6.9309565e+01  -3.7217688e+00
  -6.1486017e+01  -6.9976427e+01  -5.3643095e+00
  -4.1985545e+01  -7.0736024e+01  -3.8012629e+00
  -2.2388588e+01  -7.2033101e+01  -3.5786362e+00
  -2.8591355e+00  -7.1937096e+01  -2.8113815e+00
   1.8069399e+01  -7.2441695e+01  -2.8218323e+00
   3.8288383e+01  -7.1980813e+01  -1.7976770e+00
   5.8580911e+01  -7.0711072e+01  -3.1823213e-01
   7.8482624e+01  -7.0244705e+01   1.8005844e+00
  -8.1383350e+01  -5.4266685e+01   5.2139923e+00
  -6.1077956e+01  -5.4984975e+01   6.5351238e+00
  -4.1974218e+01  -5.5500294e+01   6.7499665e+00
  -2.1512871e+01  -5.5636134e+01   6.9566423e+00
  -2.5922500e+00  -5.5202531e+01   6.9174308e+00
   1.8776192e+01  -5.6553830e+01   7.7391501e+00
   3.8195859e+01  -5.5424501e+01   1.0208429e+01
   5.8766283e+01  -5.5702284e+01   1.1986831e+01
   7.7302775e+01  -5.5770228e+01   1.4122495e+01
  -8.1353742e+01  -3.5313447e+01   1.1395458e+01
  -6.2511849e+01  -3.5173376e+01   1.1896213e+01
  -4.2153701e+01  -3.5087220e+01   1.2559611e+01
  -2.2998100e+01  -3.6357727e+01   1.2628144e+01
  -2.6106145e+00  -3.6637303e+01   1.2997626e+01
   1.8595129e+01  -3.6409844e+01   1.4046781e+01
   3.7635236e+01  -3.6746210e+01   1.5962173e+01
   5.6875613e+01  -3.7093209e+01   1.9461896e+01
   7.7811379e+01  -3.7100166e+01   2.1749001e+01
  -8.1445363e+01  -1.4749884e+01   1.0890063e+01
  -6.1247341e+01  -1.4867934e+01   1.1703593e+01
  -4.1690108e+01  -1.5592371e+01   1.2518774e+01
  -2.1864799e+01  -1.5672647e+01   1.2630897e+01
  -2.1005295e+00  -1.6447635e+01   1.3030199e+01
   1.7624519e+01  -1.6472036e+01   1.4265125e+01
   3.8034827e+01  -1.7615583e+01   1.6856017e+01
   5.7711038e+01  -1.6963645e+01   2.0052825e+01
   7.7281233e+01  -1.7607036e+01   2.3325867e+01
  -8.0481079e+01   4.2606690e+00   5.5769594e+00
  -6.0623718e+01   3.6869933e+00   7.9158225e+00
  -4.1625637e+01   4.1298807e+00   9.4341094e+00
  -2.1338773e+01   3.9863579e+00   9.9014770e+00
  -2.1250213e+00   3.8287932e+00   1.0447343e+01
   1.8767581e+01   3.2494410e+00   1.2409997e+01
   3.8198173e+01   2.7932442e+00   1.4927873e+01
   5.8375289e+01   2.3581578e+00   1.7772927e+01
   7.8765021e+01   1.9759390e+00   2.0163460e+01
  -7.8897999e+01   2.0051983e+01  -4.8506162e+00
  -5.9464808e+01   2.1300749e+01  -2.1654145e+00
  -3.9409787e+01   2.1560574e+01   6.5028804e-01
  -2.1115290e+01   2.1918918e+01   1.5155582e+00
  -1.0758297e+00   2.1506869e+01   3.3905878e+00
   1.9785002e+01   2.1598545e+01   5.5910724e+00
   3.9633593e+01   2.1678733e+01   8.4606691e+00
   5.8767125e+01   2.1693167e+01   1.1033259e+01
   7.9693122e+01   2.1657715e+01   1.3433950e+01
  -7.7329476e+01   3.5767498e+01  -1.8182938e+01
  -5.8533838e+01   3.5732677e+01  -1.5784911e+01
  -3.7318213e+01   3.6640990e+01  -1.3382841e+01
  -1.8373086e+01   3.6833325e+01  -1.0574477e+01
   1.3164948e+00   3.7419110e+01  -8.1073144e+00
   2.0896537e+01   3.7870327e+01  -5.1341942e+00
   4.0337313e+01   3.8846691e+01  -2.1816459e+00
   6.0466213e+01   3.9264246e+01   1.1796815e+00
   8.1075492e+01   3.8070964e+01   3.6888136e+00
  -7.5801522e+01   5.0581298e+01  -3.2221131e+01
  -5.5766275e+01   4.9541384e+01  -3.0355156e+01
  -3.6250688e+01   4.9898105e+01  -2.7002757e+01
  -1.5874321e+01   5.0406767e+01  -2.5659686e+01
   3.9340777e+00   5.1863067e+01  -2.3267656e+01
   2.2805276e+01   5.2659784e+01  -1.9822499e+01
   4.1836107e+01   5.4081164e+01  -1.5561476e+01
   6.1793295e+01   5.4372848e+01  -1.2122988e+01
   8.2375638e+01   5.4898994e+01  -8.1092804e+00
  -7.2825660e+01   6.2309283e+01  -4.6584125e+01
  -5.3503097e+01   6.2725667e+01  -4.6028247e+01
  -3.4073849e+01   6.2781602e+01  -4.2837178e+01
  -1.4139414e+01   6.2638390e+01  -4.1196058e+01
   5.6926036e+00   6.3752492e+01  -3.8250371e+01
   2.4249116e+01   6.5230027e+01  -3.3862304e+01
   4.4517948e+01   6.6294796e+01  -2.9735652e+01
   6.3897909e+01   6.7733262e+01  -2.5045745e+01
   8.3886198e+01   6.8971735e+01  -2.1603997e+01
