  -7.7997510e+01  -7.4560651e+01  -8.4609806e+00
  -5.8629632e+01  -7.3686917e+01  -6.4479764e+00
  -3.9090945e+01  -7.3459128e+01  -5.2329321e+00
  -1.9520587e+01  -7.4412948e+01  -3.8676616e+00
  -2.5251252e-02  -7.3352232e+01  -2.9708863e+00
   2.0863466e+01  -7.3561136e+01  -1.6011668e+00
   4.1082137e+01  -7.2906566e+01  -6.8165062e-01
   6.1374873e+01  -7.1126796e+01   1.0888997e-01
   8.0826645e+01  -7.1779222e+01   1.9279140e+00
  -7.8971857e+01  -5.6959946e+01   9.9480067e-01
  -5.8697377e+01  -5.7045087e+01   2.8679159e+00
  -3.9601090e+01  -5.6975528e+01   3.6370308e+00
  -1.9187787e+01  -5.6682232e+01   5.0294766e+00
  -3.0861680e-01  -5.5921601e+01   6.1147589e+00
   2.1096158e+01  -5.6600845e+01   6.8117522e+00
   4.0533729e+01  -5.5004421e+01   8.8436115e+00
   6.1050046e+01  -5.5184064e+01   1.1173993e+01
   7.9428428e+01  -5.4171368e+01   1.3349597e+01
  -7.9679625e+01  -3.7942183e+01   6.9328469e+00
  -6.0935105e+01  -3.7508487e+01   8.8673157e+00
  -4.0611937e+01  -3.6790481e+01   1.0031380e+01
  -2.1425898e+01  -3.7441433e+01   1.0199050e+01
  -1.0747940e+00  -3.7214696e+01   1.1481781e+01
   2.0119912e+01  -3.6451374e+01   1.2500497e+01
   3.9176479e+01  -3.6268341e+01   1.4267225e+01
   5.8564107e+01  -3.6014498e+01   1.6839391e+01
   7.9326333e+01  -3.5225706e+01   2.0281046e+01
  -8.0584277e+01  -1.7690444e+01   9.5108385e+00
  -6.0404652e+01  -1.7244980e+01   1.0615459e+01
  -4.0835786e+01  -1.7344249e+01   1.1466531e+01
  -2.1017852e+01  -1.6800604e+01   1.1340622e+01
  -1.2442709e+00  -1.7053229e+01   1.1913387e+01
   1.8478672e+01  -1.6574339e+01   1.3087863e+01
   3.8974812e+01  -1.7133469e+01   1.5136446e+01
   5.8718617e+01  -1.5876502e+01   1.7666291e+01
   7.8297359e+01  -1.5700138e+01   2.0946693e+01
  -8.0355172e+01   1.7516556e+00   5.9735657e+00
  -6.0439459e+01   1.4956462e+00   7.8209757e+00
  -4.1430139e+01   2.4439178e+00   8.9049442e+00
  -2.1143020e+01   2.9141383e+00   8.9919637e+00
  -1.9340868e+00   3.2465451e+00   9.6224064e+00
   1.8996382e+01   3.1736104e+00   1.1234440e+01
   3.8491698e+01   3.2731756e+00   1.3239049e+01
   5.8671911e+01   3.5262263e+00   1.6084154e+01
   7.9006018e+01   4.0718239e+00   1.8882066e+01
  -7.9873410e+01   1.9344981e+01  -1.1572727e+00
  -6.0370000e+01   2.0521080e+01   6.6228615e-01
  -4.0150514e+01   2.0719923e+01   1.8165882e+00
  -2.1897779e+01   2.1758032e+01   2.9679873e+00
  -1.8045979e+00   2.1516363e+01   4.1809042e+00
   1.9115255e+01   2.1906457e+01   5.6750335e+00
   3.9056041e+01   2.2421254e+01   7.7505151e+00
   5.8163376e+01   2.3194865e+01   1.0400377e+01
   7.9093152e+01   2.3937780e+01   1.2648591e+01
  -7.9250364e+01   3.6066850e+01  -1.3282210e+01
  -6.0486154e+01   3.6782150e+01  -1.0748326e+01
  -3.9182011e+01   3.7985135e+01  -9.5718612e+00
  -2.0159461e+01   3.8092446e+01  -7.3418802e+00
  -3.8425141e-01   3.8605070e+01  -5.6721705e+00
   1.9324801e+01   3.9061707e+01  -3.7315910e+00
   3.8910114e+01   4.0057818e+01  -1.9886423e+00
   5.9131272e+01   4.0900657e+01   6.6463490e-01
   7.9753128e+01   4.0764252e+01   3.3446525e+00
  -7.8607399e+01   5.0803074e+01  -2.7469685e+01
  -5.8817072e+01   5.1539853e+01  -2.4534412e+01
  -3.9007313e+01   5.1856199e+01  -2.2608575e+01
  -1.8655263e+01   5.2982501e+01  -2.1272757e+01
   1.2657584e+00   5.4145339e+01  -1.9852900e+01
   2.0310546e+01   5.4932783e+01  -1.7550295e+01
   3.9800715e+01   5.4913008e+01  -1.5974832e+01
   5.9908974e+01   5.5175861e+01  -1.3569327e+01
   8.0584293e+01   5.6205941e+01  -1.0179684e+01
  -7.6924062e+01   6.3383792e+01  -4.1311248e+01
  -5.6961781e+01   6.5143913e+01  -3.9899323e+01
  -3.7470065e+01   6.6121311e+01  -3.7291743e+01
  -1.7349029e+01   6.6206947e+01  -3.6017557e+01
   2.6528259e+00   6.7288725e+01  -3.4609444e+01
   2.1679707e+01   6.7564020e+01  -3.2689959e+01
   4.2228193e+01   6.7866488e+01  -3.0109892e+01
   6.1996401e+01   6.8698027e+01  -2.7250910e+01
   8.1811557e+01   6.9405099e+01  -2.2804466e+01
