  -8.1040816e+01  -7.1851319e+01   9.7589160e+00
  -6.1553071e+01  -7.1272315e+01   1.0975984e+01
  -4.1978086e+01  -7.1283087e+01   1.1305156e+01
  -2.2357272e+01  -7.1495052e+01   1.0438317e+01
  -2.8348767e+00  -7.0988049e+01   9.6531710e+00
   1.8095357e+01  -7.0743584e+01   9.3012267e+00
   3.8321196e+01  -7.0185490e+01   1.0121326e+01
   5.8642765e+01  -6.8957831e+01   1.1176958e+01
   7.7386540e+01  -6.9180771e+01   1.1212975e+01
  -8.1362577e+01  -5.3057299e+01   1.6601960e+01
  -6.1085130e+01  -5.3122620e+01   1.6262469e+01
  -4.2026529e+01  -5.3473010e+01   1.7645045e+01
  -2.1571928e+01  -5.3582921e+01   1.7074891e+01
  -2.6656920e+00  -5.2805269e+01   1.7433972e+01
   1.8727521e+01  -5.3823716e+01   1.8070169e+01
   3.8209393e+01  -5.1988057e+01   1.9328433e+01
   5.8748982e+01  -5.2458802e+01   2.1398673e+01
   7.7345245e+01  -5.1519990e+01   2.2638451e+01
  -8.1550224e+01  -3.3122808e+01   1.6734359e+01
  -6.2755434e+01  -3.2698799e+01   1.8099411e+01
  -4.2387542e+01  -3.2482627e+01   1.8162473e+01
  -2.3215573e+01  -3.3451328e+01   1.8393024e+01
  -2.8239769e+00  -3.3302322e+01   1.8550675e+01
   1.8365906e+01  -3.2667527e+01   1.9743111e+01
   3.7417318e+01  -3.2580872e+01   2.1571703e+01
   5.6813193e+01  -3.2590778e+01   2.4093711e+01
   7.7553026e+01  -3.1993530e+01   2.7704780e+01
  -8.1642169e+01  -1.3227882e+01   1.1508712e+01
  -6.1541557e+01  -1.2887990e+01   1.3626670e+01
  -4.2017238e+01  -1.3217505e+01   1.5165201e+01
  -2.2201136e+01  -1.2933957e+01   1.5716207e+01
  -2.4404572e+00  -1.3201626e+01   1.6627426e+01
   1.7284499e+01  -1.2828530e+01   1.7806441e+01
   3.7739107e+01  -1.3476177e+01   2.0212822e+01
   5.7524102e+01  -1.2507800e+01   2.2539647e+01
   7.7154745e+01  -1.2558428e+01   2.5498458e+01
  -8.0351560e+01   3.4646256e+00   1.0084943e+00
  -6.0640301e+01   3.6409404e+00   4.4069282e+00
  -4.1757855e+01   4.8703487e+00   6.7243016e+00
  -2.1567503e+01   5.6002486e+00   8.6250413e+00
  -2.4225080e+00   6.2126660e+00   1.0232882e+01
   1.8427109e+01   6.3043666e+00   1.2676972e+01
   3.7847037e+01   6.4116532e+00   1.5313367e+01
   5.8080254e+01   6.3567332e+00   1.7765624e+01
   7.8410219e+01   6.6869470e+00   2.0626632e+01
  -7.7383820e+01   1.7550271e+01  -1.1376706e+01
  -5.9255060e+01   1.8849166e+01  -9.0098445e+00
  -3.9244125e+01   1.9635906e+01  -5.9860898e+00
  -2.1194292e+01   2.1346115e+01  -3.3699028e+00
  -1.2568383e+00   2.1836805e+01  -6.2715660e-01
   1.9546708e+01   2.2661294e+01   1.9336060e+00
   3.9317999e+01   2.3672267e+01   5.1400927e+00
   5.8404914e+01   2.4334433e+01   7.9617394e+00
   7.9309257e+01   2.4852815e+01   1.0491891e+01
  -7.6313566e+01   3.0206042e+01  -2.7682365e+01
  -5.7729802e+01   3.1164947e+01  -2.4522196e+01
  -3.7110565e+01   3.3183078e+01  -2.1498807e+01
  -1.8303095e+01   3.3822924e+01  -1.7933502e+01
   1.2921900e+00   3.5141461e+01  -1.5035938e+01
   2.0806767e+01   3.6501551e+01  -1.1913030e+01
   4.0097244e+01   3.8520519e+01  -8.5342973e+00
   6.0073970e+01   4.0054303e+01  -4.6325770e+00
   8.0593393e+01   4.0035527e+01  -1.2539695e+00
  -7.5096809e+01   4.2668414e+01  -4.3870723e+01
  -5.5130825e+01   4.2415756e+01  -4.1174415e+01
  -3.5553034e+01   4.3138620e+01  -3.7649785e+01
  -1.5438388e+01   4.5148366e+01  -3.4713654e+01
   4.2880837e+00   4.7200356e+01  -3.2092410e+01
   2.3164730e+01   4.8783360e+01  -2.8963140e+01
   4.2139442e+01   5.0977254e+01  -2.4780285e+01
   6.1757214e+01   5.2874943e+01  -2.0117729e+01
   8.2088338e+01   5.4940217e+01  -1.5384906e+01
  -7.3303233e+01   5.4783025e+01  -5.8108569e+01
  -5.2697652e+01   5.4686075e+01  -5.7548543e+01
  -3.3225704e+01   5.4422783e+01  -5.4641048e+01
  -1.3313565e+01   5.5337923e+01  -5.1615115e+01
   6.4659213e+00   5.7486151e+01  -4.8897710e+01
   2.4946406e+01   5.9907087e+01  -4.4608983e+01
   4.4812399e+01   6.2524681e+01  -3.9366941e+01
   6.4035437e+01   6.5042840e+01  -3.4490364e+01
   8.3640145e+01   6.7638748e+01  -2.9818334e+01
