  -8.0967350e+01  -7.1440387e+01   6.9325900e+00
  -6.1515418e+01  -7.1421255e+01   8.7244277e+00
  -4.1999254e+01  -7.0994454e+01   7.2325489e+00
  -2.2402212e+01  -7.2162456e+01   7.8361999e+00
  -2.8821664e+00  -7.1403268e+01   7.2125944e+00
   1.8030589e+01  -7.1075217e+01   6.3140756e+00
   3.8269385e+01  -7.0558525e+01   6.7531437e+00
   5.8597245e+01  -6.9236077e+01   7.5385881e+00
   7.8260596e+01  -6.9726694e+01   7.9588168e+00
  -8.1275143e+01  -5.3287535e+01   1.4772268e+01
  -6.0915770e+01  -5.3544433e+01   1.4790248e+01
  -4.1816591e+01  -5.3982753e+01   1.5332259e+01
  -2.1354766e+01  -5.3935761e+01   1.5133880e+01
  -2.4368579e+00  -5.3397118e+01   1.5179534e+01
   1.8945246e+01  -5.4585347e+01   1.5890395e+01
   3.8445746e+01  -5.2896518e+01   1.7062799e+01
   5.9055028e+01  -5.3107275e+01   1.8325844e+01
   7.7622456e+01  -5.2573243e+01   2.0116048e+01
  -8.1275257e+01  -3.3494147e+01   1.7065469e+01
  -6.2431923e+01  -3.3195644e+01   1.7421752e+01
  -4.2066817e+01  -3.2814972e+01   1.7282878e+01
  -2.2899258e+01  -3.3888178e+01   1.7377029e+01
  -2.5074985e+00  -3.4004912e+01   1.7540549e+01
   1.8690397e+01  -3.3544214e+01   1.8668812e+01
   3.7744193e+01  -3.3656186e+01   2.0471012e+01
   5.7148407e+01  -3.3589546e+01   2.2927143e+01
   7.8031516e+01  -3.3169040e+01   2.5620871e+01
  -8.1523642e+01  -1.3496603e+01   1.2252933e+01
  -6.1408973e+01  -1.3128267e+01   1.4227846e+01
  -4.1837047e+01  -1.3457271e+01   1.4939301e+01
  -2.2016261e+01  -1.3290192e+01   1.5352126e+01
  -2.2467607e+00  -1.3885811e+01   1.5797636e+01
   1.7476688e+01  -1.3685051e+01   1.7042014e+01
   3.7941061e+01  -1.4537562e+01   1.9296729e+01
   5.7681331e+01  -1.3465388e+01   2.1936820e+01
   7.7338148e+01  -1.3638500e+01   2.4711499e+01
  -8.0446968e+01   3.8272144e+00   2.8037975e+00
  -6.0649104e+01   3.7543480e+00   5.6592216e+00
  -4.1674793e+01   4.9020510e+00   7.1037747e+00
  -2.1446478e+01   5.3883948e+00   8.6447680e+00
  -2.3148317e+00   5.8428587e+00   1.0451589e+01
   1.8574801e+01   5.6016281e+00   1.2514000e+01
   3.8026937e+01   5.4857474e+00   1.4900778e+01
   5.8196051e+01   5.5574857e+00   1.7833582e+01
   7.8529795e+01   5.8034980e+00   2.0676151e+01
  -7.8726619e+01   1.7628538e+01  -1.0125624e+01
  -5.9352968e+01   1.9370832e+01  -7.2893016e+00
  -3.9240670e+01   2.0153915e+01  -5.0350169e+00
  -2.1114951e+01   2.1551427e+01  -2.7831260e+00
  -1.2421556e+00   2.2005323e+01   3.9986975e-01
   1.9502955e+01   2.2916115e+01   3.3723602e+00
   3.9353239e+01   2.3456928e+01   6.1797267e+00
   5.8459759e+01   2.3981963e+01   8.8955526e+00
   7.9317920e+01   2.4603137e+01   1.1761420e+01
  -7.6120686e+01   3.2069550e+01  -2.4680856e+01
  -5.8082244e+01   3.2316620e+01  -2.2303620e+01
  -3.7004379e+01   3.3894628e+01  -2.0361926e+01
  -1.8099104e+01   3.4058829e+01  -1.7295113e+01
   1.3925239e+00   3.5500138e+01  -1.3815362e+01
   2.0886013e+01   3.6786891e+01  -1.0533709e+01
   4.0178925e+01   3.8734151e+01  -7.1269033e+00
   6.0209739e+01   3.9937454e+01  -3.3900550e+00
   8.0713402e+01   3.9826602e+01   8.1191353e-02
  -7.5331689e+01   4.4133265e+01  -4.1194440e+01
  -5.5441104e+01   4.3458936e+01  -3.9022023e+01
  -3.5774903e+01   4.4497843e+01  -3.6124320e+01
  -1.5678224e+01   4.6112069e+01  -3.3379480e+01
   3.9702210e+00   4.8289472e+01  -3.0311450e+01
   2.2863357e+01   4.9332108e+01  -2.7057483e+01
   4.1793242e+01   5.1560416e+01  -2.2693621e+01
   6.1336800e+01   5.3674301e+01  -1.7817304e+01
   8.1957351e+01   5.4699334e+01  -1.4107623e+01
  -7.3124093e+01   5.5987051e+01  -5.5592747e+01
  -5.2130600e+01   5.7492939e+01  -5.3742092e+01
  -3.2517029e+01   5.6986842e+01  -5.2088755e+01
  -1.3317140e+01   5.7565868e+01  -4.8940710e+01
   6.5367185e+00   5.9379707e+01  -4.6540389e+01
   2.5128001e+01   6.1410067e+01  -4.2537355e+01
   4.5130584e+01   6.3445156e+01  -3.7563064e+01
   6.4329834e+01   6.5889828e+01  -3.2557099e+01
   8.2471921e+01   6.7412244e+01  -2.8958538e+01
